9.842856 4.599107 5.771412 
26.010000 4.599107 5.163125 
25.404018 4.599107 5.771412 
28.305000 4.599107 5.693516 
28.382469 4.599107 5.771412 
33.660000 4.599107 5.472720 
33.360039 4.599107 5.771412 
-18.360001 5.365625 5.302269 
-17.890928 5.365625 5.771412 
6.885000 5.365625 5.728374 
6.841771 5.365625 5.771412 
8.415000 5.365625 5.355896 
9.180000 5.122437 5.771412 
8.840136 5.365625 5.771412 
26.010000 5.365625 5.162870 
25.404293 5.365625 5.771412 
28.305000 5.365625 5.693234 
28.382442 5.365625 5.771412 
33.660000 5.365625 5.472799 
33.360096 5.365625 5.771412 
-17.594999 5.875101 5.771412 
-17.594999 6.132143 5.618528 
-17.441292 6.132143 5.771412 
6.885000 6.132143 5.749702 
6.862060 6.132143 5.771412 
7.650000 6.016890 5.771412 
6.998593 6.132143 5.771412 
8.415000 5.629216 5.771412 
26.010000 6.132143 5.163370 
25.404282 6.132143 5.771412 
28.305000 6.132143 5.692901 
28.382475 6.132143 5.771412 
33.660000 6.132143 5.472763 
33.360077 6.132143 5.771412 
-17.594999 6.898661 5.097303 
-16.917131 6.898661 5.771412 
6.885000 6.154452 5.771412 
26.010000 6.898661 5.163731 
25.404140 6.898661 5.771412 
28.305000 6.898661 5.692803 
28.382446 6.898661 5.771412 
33.660000 6.898661 5.472843 
33.360146 6.898661 5.771412 
-16.830000 7.010906 5.771412 
-16.830000 7.665179 5.248391 
-16.309675 7.665179 5.771412 
26.010000 7.665179 5.164737 
25.403955 7.665179 5.771412 
28.305000 7.665179 5.692837 
28.382481 7.665179 5.771412 
33.660000 7.665179 5.472821 
33.360085 7.665179 5.771412 
-16.065001 7.947464 5.771412 
-16.065001 8.431697 5.331816 
-15.627294 8.431697 5.771412 
26.010000 8.431697 5.162997 
25.404266 8.431697 5.771412 
28.305000 8.431697 5.692844 
28.382452 8.431697 5.771412 
33.660000 8.431697 5.473149 
33.360325 8.431697 5.771412 
-15.300000 8.758329 5.771412 
-15.300000 9.198215 5.308538 
-14.829690 9.198215 5.771412 
26.010000 9.198215 5.162641 
25.404259 9.198215 5.771412 
28.305000 9.198215 5.692824 
28.382463 9.198215 5.771412 
33.660000 9.198215 5.473442 
33.360554 9.198215 5.771412 
-14.535000 9.452773 5.771412 
-14.535000 9.964732 5.163468 
-13.912168 9.964732 5.771412 
26.010000 9.964732 5.162763 
25.404255 9.964732 5.771412 
28.305000 9.964732 5.692814 
28.382465 9.964732 5.771412 
33.660000 9.964732 5.473418 
33.360584 9.964732 5.771412 
-13.770000 10.073870 5.771412 
-13.005000 10.731250 5.647292 
-13.005000 10.642711 5.771412 
-12.881128 10.731250 5.771412 
26.010000 10.731250 5.162550 
25.404236 10.731250 5.771412 
28.305000 10.731250 5.692861 
28.382597 10.731250 5.771412 
33.660000 10.731250 5.472754 
33.360199 10.731250 5.771412 
-12.240000 11.160652 5.771412 
-12.240000 11.497767 5.231156 
-11.693522 11.497767 5.771412 
26.010000 11.497767 5.162729 
25.404125 11.497767 5.771412 
28.305000 11.497767 5.692983 
28.382511 11.497767 5.771412 
33.660000 11.497767 5.472230 
33.359982 11.497767 5.771412 
-11.475000 11.624694 5.771412 
-10.710000 12.264286 5.335513 
-10.710000 12.041607 5.771412 
-10.269567 12.264286 5.771412 
26.010000 12.264286 5.162534 
25.404409 12.264286 5.771412 
28.305000 12.264286 5.694191 
28.381720 12.264286 5.771412 
33.660000 12.264286 5.471942 
33.359962 12.264286 5.771412 
-9.945000 12.420822 5.771412 
-9.180000 13.030804 5.134151 
-9.180000 12.765216 5.771412 
-8.539598 13.030804 5.771412 
26.010000 13.030804 5.164730 
25.403887 13.030804 5.771412 
28.305000 13.030804 5.695403 
28.381660 13.030804 5.771412 
33.660000 13.030804 5.471169 
33.359619 13.030804 5.771412 
-8.415000 13.080398 5.771412 
-7.650000 13.366770 5.771412 
-6.885000 13.797321 5.214555 
-6.885000 13.626895 5.771412 
-6.330389 13.797321 5.771412 
26.010000 13.797321 5.170192 
25.403526 13.797321 5.771412 
28.305000 13.797321 5.696557 
28.379116 13.797321 5.771412 
33.660000 13.797321 5.472956 
33.357338 13.797321 5.771412 
-6.120000 13.859942 5.771412 
-5.355000 14.066637 5.771412 
-4.590000 14.250151 5.771412 
-3.825000 14.416095 5.771412 
-3.060000 14.563839 5.735953 
-3.060000 14.558289 5.771412 
-3.023999 14.563839 5.771412 
26.010000 14.563839 5.175222 
25.401228 14.563839 5.771412 
28.305000 14.563839 5.671095 
28.397047 14.563839 5.771412 
33.660000 14.563839 5.462919 
33.353104 14.563839 5.771412 
-2.295000 14.673947 5.771412 
-1.530000 14.768470 5.771412 
-0.765000 14.845957 5.771412 
0.000000 14.907473 5.771412 
0.765000 14.950796 5.771412 
1.530000 14.978148 5.771412 
2.295000 14.995872 5.771412 
3.060000 15.004469 5.771412 
3.825000 15.006145 5.771412 
4.590000 15.005962 5.771412 
5.355000 15.004958 5.771412 
6.120000 15.003413 5.771412 
6.885000 15.001738 5.771412 
7.650000 15.000853 5.771412 
8.415000 15.000519 5.771412 
9.180000 15.000246 5.771412 
9.945000 15.000103 5.771412 
10.710000 15.000055 5.771412 
11.475000 15.000022 5.771412 
12.240000 15.000004 5.771412 
13.005000 15.000001 5.771412 
13.770000 15.000000 5.771412 
14.535000 15.000000 5.771412 
15.300000 14.999998 5.771412 
16.065001 15.000000 5.771412 
16.830000 15.000000 5.771412 
17.594999 14.999999 5.771412 
18.360001 14.999999 5.771412 
19.125000 15.000000 5.771412 
19.889999 14.999999 5.771412 
20.655001 15.000109 5.771412 
21.420000 15.000481 5.771412 
22.184999 15.000360 5.771412 
22.950001 14.999645 5.771412 
23.715000 15.002187 5.771412 
24.480000 15.009309 5.771412 
25.245001 14.745973 5.771412 
29.070000 14.995375 5.771412 
29.834999 15.004176 5.771412 
30.600000 15.000340 5.771412 
31.365000 15.004055 5.771412 
32.130001 14.998912 5.771412 
32.895000 14.946186 5.771412 
-2.295000 -14.563839 6.506774 
-1.530000 -14.677815 6.540934 
-2.260410 -14.563839 6.540934 
-0.765000 -14.774059 6.540934 
0.000000 -14.851072 6.540934 
0.765000 -14.910304 6.540934 
1.530000 -14.951840 6.540934 
2.295000 -14.981565 6.540934 
3.060000 -14.998936 6.540934 
3.825000 -15.005924 6.540934 
4.590000 -15.009278 6.540934 
5.355000 -15.009472 6.540934 
6.120000 -15.006913 6.540934 
6.885000 -15.004091 6.540934 
7.650000 -15.002655 6.540934 
8.415000 -15.001486 6.540934 
9.180000 -15.000587 6.540934 
9.945000 -15.000341 6.540934 
10.710000 -15.000180 6.540934 
11.475000 -15.000065 6.540934 
12.240000 -15.000028 6.540934 
13.005000 -15.000011 6.540934 
13.770000 -15.000002 6.540934 
14.535000 -15.000000 6.540934 
15.300000 -15.000000 6.540934 
16.065001 -15.000000 6.540934 
16.830000 -15.000000 6.540934 
17.594999 -15.000000 6.540934 
18.360001 -15.000000 6.540934 
19.125000 -15.000000 6.540934 
19.889999 -15.000005 6.540934 
20.655001 -15.000278 6.540934 
21.420000 -15.000430 6.540934 
22.184999 -14.999873 6.540934 
22.950001 -15.002941 6.540934 
23.715000 -15.003091 6.540934 
24.480000 -14.748080 6.540934 
24.638779 -14.563839 6.540934 
25.245001 -14.563839 5.934883 
29.070000 -14.563839 6.447470 
29.834999 -14.995939 6.540934 
29.159245 -14.563839 6.540934 
30.600000 -15.004037 6.540934 
31.365000 -14.997415 6.540934 
32.130001 -14.947679 6.540934 
32.579536 -14.563839 6.540934 
32.895000 -14.563839 6.230308 
-6.120000 -13.797321 5.921444 
-5.355000 -13.850788 6.540934 
-5.532346 -13.797321 6.540934 
-4.590000 -14.059053 6.540934 
-3.825000 -14.250307 6.540934 
-3.060000 -14.417218 6.540934 
-2.295000 -14.558349 6.540934 
25.245001 -13.797321 5.930403 
24.634777 -13.797321 6.540934 
29.070000 -13.797321 6.461670 
29.151464 -13.797321 6.540934 
32.895000 -13.797321 6.234043 
32.587864 -13.797321 6.540934 
-8.415000 -13.030804 5.896240 
-7.650000 -13.078280 6.540934 
-7.771757 -13.030804 6.540934 
-6.885000 -13.354894 6.540934 
-6.120000 -13.615141 6.540934 
25.245001 -13.030804 5.930914 
24.634439 -13.030804 6.540934 
29.070000 -13.030804 6.460582 
29.151543 -13.030804 6.540934 
32.895000 -13.030804 6.235878 
32.589691 -13.030804 6.540934 
-9.945000 -12.264286 6.069915 
-9.180000 -12.415395 6.540934 
-9.482615 -12.264286 6.540934 
-8.415000 -12.768686 6.540934 
25.245001 -12.264286 5.930393 
24.632063 -12.264286 6.540934 
29.070000 -12.264286 6.460997 
29.150442 -12.264286 6.540934 
32.895000 -12.264286 6.235465 
32.589172 -12.264286 6.540934 
-11.475000 -11.497767 5.962521 
-10.710000 -11.604095 6.540934 
-10.896083 -11.497767 6.540934 
-9.945000 -12.022144 6.540934 
25.245001 -11.497767 5.930556 
24.631834 -11.497767 6.540934 
29.070000 -11.497767 6.459555 
29.151211 -11.497767 6.540934 
32.895000 -11.497767 6.235511 
32.589172 -11.497767 6.540934 
-12.240000 -10.731250 6.423241 
-11.475000 -11.149154 6.540934 
-12.122114 -10.731250 6.540934 
25.245001 -10.731250 5.930418 
24.631720 -10.731250 6.540934 
29.070000 -10.731250 6.458888 
29.151880 -10.731250 6.540934 
32.895000 -10.731250 6.235742 
32.589348 -10.731250 6.540934 
-13.770000 -9.964732 5.924548 
-13.005000 -10.087710 6.540934 
-13.162124 -9.964732 6.540934 
-12.240000 -10.650178 6.540934 
25.245001 -9.964732 5.930458 
24.631832 -9.964732 6.540934 
29.070000 -9.964732 6.458965 
29.151836 -9.964732 6.540934 
32.895000 -9.964732 6.235797 
32.589401 -9.964732 6.540934 
-14.535000 -9.198215 6.061165 
-13.770000 -9.451718 6.540934 
-14.057054 -9.198215 6.540934 
25.245001 -9.198215 5.930562 
24.632484 -9.198215 6.540934 
29.070000 -9.198215 6.458937 
29.151812 -9.198215 6.540934 
32.895000 -9.198215 6.235900 
32.589607 -9.198215 6.540934 
-15.300000 -8.431697 6.094946 
-14.535000 -8.746475 6.540934 
-14.854857 -8.431697 6.540934 
25.245001 -8.431697 5.930575 
24.632702 -8.431697 6.540934 
29.070000 -8.431697 6.458963 
29.151859 -8.431697 6.540934 
32.895000 -8.431697 6.235866 
32.589657 -8.431697 6.540934 
-16.065001 -7.665179 6.021680 
-15.300000 -7.948766 6.540934 
-15.549071 -7.665179 6.540934 
25.245001 -7.665179 5.930569 
24.631935 -7.665179 6.540934 
29.070000 -7.665179 6.458939 
29.151907 -7.665179 6.540934 
32.895000 -7.665179 6.235827 
32.589592 -7.665179 6.540934 
-16.830000 -6.898661 5.852286 
-16.065001 -7.002742 6.540934 
-16.143589 -6.898661 6.540934 
25.245001 -6.898661 5.930495 
24.631355 -6.898661 6.540934 
29.070000 -6.898661 6.459167 
29.151670 -6.898661 6.540934 
32.895000 -6.898661 6.235726 
32.589394 -6.898661 6.540934 
-16.830000 -6.132143 6.382409 
-16.669884 -6.132143 6.540934 
6.120000 -6.329501 6.540934 
6.120000 -6.132143 6.497950 
6.076623 -6.132143 6.540934 
6.885000 -6.625286 6.540934 
7.650000 -6.132143 6.009920 
7.650000 -6.364980 6.540934 
8.174314 -6.132143 6.540934 
25.245001 -6.132143 5.930565 
24.631502 -6.132143 6.540934 
29.070000 -6.132143 6.459755 
29.151085 -6.132143 6.540934 
32.895000 -6.132143 6.235474 
32.589092 -6.132143 6.540934 
-17.594999 -5.365625 6.064620 
-16.830000 -5.867638 6.540934 
-17.120436 -5.365625 6.540934 
6.120000 -5.365625 6.493896 
6.072861 -5.365625 6.540934 
8.415000 -6.018736 6.540934 
9.180000 -5.365625 6.110492 
9.180000 -5.624440 6.540934 
9.604336 -5.365625 6.540934 
25.245001 -5.365625 5.930484 
24.631556 -5.365625 6.540934 
29.070000 -5.365625 6.459962 
29.150921 -5.365625 6.540934 
32.895000 -5.365625 6.235276 
32.588860 -5.365625 6.540934 
-17.594999 -4.599107 6.436615 
-17.491987 -4.599107 6.540934 
6.120000 -4.599107 6.494260 
6.073297 -4.599107 6.540934 
9.945000 -5.124669 6.540934 
9.945000 -4.599107 5.883086 
10.596309 -4.599107 6.540934 
25.245001 -4.599107 5.930505 
24.631689 -4.599107 6.540934 
29.070000 -4.599107 6.459572 
29.151329 -4.599107 6.540934 
32.895000 -4.599107 6.235415 
32.588970 -4.599107 6.540934 
-18.360001 -3.832589 5.990448 
-17.594999 -4.351178 6.540934 
-17.808462 -3.832589 6.540934 
6.120000 -3.832589 6.493790 
6.072831 -3.832589 6.540934 
10.710000 -4.493403 6.540934 
10.710000 -3.832589 5.863560 
11.364633 -3.832589 6.540934 
25.245001 -3.832589 5.930468 
24.631691 -3.832589 6.540934 
29.070000 -3.832589 6.459795 
29.151043 -3.832589 6.540934 
32.895000 -3.832589 6.235692 
32.589252 -3.832589 6.540934 
-18.360001 -3.066072 6.251669 
-18.072285 -3.066072 6.540934 
6.120000 -3.066072 6.494034 
6.073101 -3.066072 6.540934 
11.475000 -3.696611 6.540934 
11.475000 -3.066072 6.051507 
11.949871 -3.066072 6.540934 
25.245001 -3.066072 5.930481 
24.631672 -3.066072 6.540934 
29.070000 -3.066072 6.459846 
29.150997 -3.066072 6.540934 
32.895000 -3.066072 6.235835 
32.589485 -3.066072 6.540934 
-18.360001 -2.299554 6.453148 
-18.272654 -2.299554 6.540934 
6.120000 -2.299554 6.494042 
6.073109 -2.299554 6.540934 
12.240000 -2.566650 6.540934 
12.240000 -2.299554 6.393233 
12.386662 -2.299554 6.540934 
25.245001 -2.299554 5.930585 
24.631742 -2.299554 6.540934 
29.070000 -2.299554 6.459308 
29.151522 -2.299554 6.540934 
32.895000 -2.299554 6.235854 
32.589577 -2.299554 6.540934 
-19.125000 -1.533036 5.839330 
-18.360001 -1.844726 6.540934 
-18.419451 -1.533036 6.540934 
6.120000 -1.533036 6.494048 
6.073114 -1.533036 6.540934 
12.240000 -1.533036 6.089380 
12.687809 -1.533036 6.540934 
25.245001 -1.533036 5.930593 
24.631804 -1.533036 6.540934 
29.070000 -1.533036 6.458913 
29.151926 -1.533036 6.540934 
32.895000 -1.533036 6.235835 
32.589504 -1.533036 6.540934 
-19.125000 -0.766518 5.932960 
-18.514141 -0.766518 6.540934 
6.120000 -0.766518 6.494051 
6.073117 -0.766518 6.540934 
12.240000 -0.766518 5.910723 
12.864357 -0.766518 6.540934 
25.245001 -0.766518 5.930572 
24.631905 -0.766518 6.540934 
29.070000 -0.766518 6.458958 
29.151899 -0.766518 6.540934 
32.895000 -0.766518 6.235516 
32.589127 -0.766518 6.540934 
-19.125000 0.000000 5.958352 
-18.542618 0.000000 6.540934 
6.120000 0.000000 6.494051 
6.073117 0.000000 6.540934 
12.240000 0.000000 5.849741 
12.933675 0.000000 6.540934 
25.245001 0.000000 5.930514 
24.631865 0.000000 6.540934 
29.070000 0.000000 6.459257 
29.151587 0.000000 6.540934 
32.895000 0.000000 6.235002 
32.588562 0.000000 6.540934 
-19.125000 0.766518 5.924272 
-18.512262 0.766518 6.540934 
6.120000 0.766518 6.494051 
6.073117 0.766518 6.540934 
12.240000 0.766518 5.916593 
12.879505 0.766518 6.540934 
25.245001 0.766518 5.930527 
24.631771 0.766518 6.540934 
29.070000 0.766518 6.459935 
29.150873 0.766518 6.540934 
32.895000 0.766518 6.234386 
32.587917 0.766518 6.540934 
-19.125000 1.533036 5.833978 
-18.423452 1.533036 6.540934 
6.120000 1.533036 6.494051 
6.073117 1.533036 6.540934 
12.240000 1.533036 6.082553 
12.713256 1.533036 6.540934 
25.245001 1.533036 5.930497 
24.631643 1.533036 6.540934 
29.070000 1.533036 6.460210 
29.150642 1.533036 6.540934 
32.895000 1.533036 6.233905 
32.587406 1.533036 6.540934 
-18.360001 1.862117 6.540934 
-18.360001 2.299554 6.454725 
-18.275013 2.299554 6.540934 
6.120000 2.299554 6.494051 
6.073117 2.299554 6.540934 
12.240000 2.299554 6.368816 
12.415808 2.299554 6.540934 
25.245001 2.299554 5.930545 
24.631638 2.299554 6.540934 
29.070000 2.299554 6.460588 
29.150270 2.299554 6.540934 
32.895000 2.299554 6.233633 
32.587109 2.299554 6.540934 
-18.360001 3.066072 6.249087 
-18.074915 3.066072 6.540934 
6.120000 3.066072 6.494053 
6.073119 3.066072 6.540934 
11.475000 3.066072 6.040959 
12.240000 2.618651 6.540934 
11.979001 3.066072 6.540934 
25.245001 3.066072 5.930512 
24.631546 3.066072 6.540934 
29.070000 3.066072 6.461150 
29.149723 3.066072 6.540934 
32.895000 3.066072 6.233607 
32.587063 3.066072 6.540934 
-18.360001 3.832589 5.998527 
-17.825018 3.832589 6.540934 
6.120000 3.832589 6.494053 
6.073120 3.832589 6.540934 
10.710000 3.832589 5.853671 
11.475000 3.726211 6.540934 
11.387981 3.832589 6.540934 
25.245001 3.832589 5.930529 
24.631584 3.832589 6.540934 
29.070000 3.832589 6.461108 
29.149803 3.832589 6.540934 
32.895000 3.832589 6.233659 
32.587120 3.832589 6.540934 
-17.594999 4.394899 6.540934 
-17.594999 4.599107 6.454985 
-17.508995 4.599107 6.540934 
6.120000 4.599107 6.493936 
6.073010 4.599107 6.540934 
9.945000 4.599107 5.871304 
10.710000 4.514555 6.540934 
10.619071 4.599107 6.540934 
25.245001 4.599107 5.930558 
24.631767 4.599107 6.540934 
29.070000 4.599107 6.460496 
29.150372 4.599107 6.540934 
32.895000 4.599107 6.233695 
32.587173 4.599107 6.540934 
-17.594999 5.365625 6.066368 
-17.119507 5.365625 6.540934 
6.120000 5.365625 6.492057 
6.071104 5.365625 6.540934 
9.180000 5.365625 6.110298 
9.945000 5.136796 6.540934 
9.618526 5.365625 6.540934 
25.245001 5.365625 5.930583 
24.631922 5.365625 6.540934 
29.070000 5.365625 6.460621 
29.150263 5.365625 6.540934 
32.895000 5.365625 6.233664 
32.587166 5.365625 6.540934 
-16.830000 5.863482 6.540934 
-16.830000 6.132143 6.380469 
-16.668154 6.132143 6.540934 
6.120000 6.132143 6.500255 
6.078476 6.132143 6.540934 
7.650000 6.132143 6.012596 
8.415000 6.025651 6.540934 
8.182082 6.132143 6.540934 
9.180000 5.632538 6.540934 
25.245001 6.132143 5.930522 
24.631834 6.132143 6.540934 
29.070000 6.132143 6.460755 
29.150124 6.132143 6.540934 
32.895000 6.132143 6.233633 
32.587128 6.132143 6.540934 
-16.830000 6.898661 5.858158 
-16.142603 6.898661 6.540934 
6.120000 6.358310 6.540934 
6.885000 6.625379 6.540934 
7.650000 6.359276 6.540934 
25.245001 6.898661 5.930651 
24.631859 6.898661 6.540934 
29.070000 6.898661 6.460007 
29.150812 6.898661 6.540934 
32.895000 6.898661 6.233382 
32.586868 6.898661 6.540934 
-16.065001 7.000490 6.540934 
-16.065001 7.665179 6.018360 
-15.546141 7.665179 6.540934 
25.245001 7.665179 5.930550 
24.632153 7.665179 6.540934 
29.070000 7.665179 6.459155 
29.151690 7.665179 6.540934 
32.895000 7.665179 6.232892 
32.586391 7.665179 6.540934 
-15.300000 7.948311 6.540934 
-15.300000 8.431697 6.100806 
-14.857836 8.431697 6.540934 
25.245001 8.431697 5.930609 
24.633406 8.431697 6.540934 
29.070000 8.431697 6.459491 
29.151321 8.431697 6.540934 
32.895000 8.431697 6.232700 
32.586174 8.431697 6.540934 
-14.535000 8.747048 6.540934 
-14.535000 9.198215 6.061357 
-14.049841 9.198215 6.540934 
25.245001 9.198215 5.930513 
24.634302 9.198215 6.540934 
29.070000 9.198215 6.460034 
29.150833 9.198215 6.540934 
32.895000 9.198215 6.233007 
32.586426 9.198215 6.540934 
-13.770000 9.439207 6.540934 
-13.770000 9.964732 5.910517 
-13.138513 9.964732 6.540934 
25.245001 9.964732 5.930553 
24.634520 9.964732 6.540934 
29.070000 9.964732 6.459752 
29.151066 9.964732 6.540934 
32.895000 9.964732 6.233335 
32.586739 9.964732 6.540934 
-13.005000 10.070288 6.540934 
-12.240000 10.731250 6.426488 
-12.240000 10.651380 6.540934 
-12.126259 10.731250 6.540934 
25.245001 10.731250 5.930499 
24.633766 10.731250 6.540934 
29.070000 10.731250 6.458971 
29.151743 10.731250 6.540934 
32.895000 10.731250 6.233868 
32.587326 10.731250 6.540934 
-11.475000 11.157229 6.540934 
-11.475000 11.497767 5.988342 
-10.915841 11.497767 6.540934 
25.245001 11.497767 5.930568 
24.632521 11.497767 6.540934 
29.070000 11.497767 6.458941 
29.151825 11.497767 6.540934 
32.895000 11.497767 6.234442 
32.587994 11.497767 6.540934 
-10.710000 11.617002 6.540934 
-9.945000 12.264286 6.090676 
-9.945000 12.033135 6.540934 
-9.488667 12.264286 6.540934 
25.245001 12.264286 5.930885 
24.632568 12.264286 6.540934 
29.070000 12.264286 6.459852 
29.151583 12.264286 6.540934 
32.895000 12.264286 6.235071 
32.588699 12.264286 6.540934 
-9.180000 12.413574 6.540934 
-8.415000 13.030804 5.895848 
-8.415000 12.761895 6.540934 
-7.777695 13.030804 6.540934 
25.245001 13.030804 5.930450 
24.634037 13.030804 6.540934 
29.070000 13.030804 6.460189 
29.151909 13.030804 6.540934 
32.895000 13.030804 6.235837 
32.589584 13.030804 6.540934 
-7.650000 13.082600 6.540934 
-6.885000 13.367058 6.540934 
-6.120000 13.797321 5.984368 
-6.120000 13.628154 6.540934 
-5.575873 13.797321 6.540934 
25.245001 13.797321 5.929994 
24.634457 13.797321 6.540934 
29.070000 13.797321 6.462826 
29.150452 13.797321 6.540934 
32.895000 13.797321 6.234139 
32.586376 13.797321 6.540934 
-5.355000 13.863688 6.540934 
-4.590000 14.068630 6.540934 
-3.825000 14.253781 6.540934 
-3.060000 14.413494 6.540934 
-2.295000 14.563839 6.444873 
-2.295000 14.547848 6.540934 
-2.191913 14.563839 6.540934 
25.245001 14.563839 5.928118 
24.632086 14.563839 6.540934 
29.070000 14.563839 6.437999 
29.171913 14.563839 6.540934 
32.895000 14.563839 6.230091 
32.580616 14.563839 6.540934 
-1.530000 14.664946 6.540934 
-0.765000 14.764433 6.540934 
0.000000 14.845272 6.540934 
0.765000 14.905589 6.540934 
1.530000 14.947698 6.540934 
2.295000 14.979120 6.540934 
3.060000 14.997271 6.540934 
3.825000 15.003353 6.540934 
4.590000 15.006361 6.540934 
5.355000 15.007016 6.540934 
6.120000 15.005574 6.540934 
6.885000 15.003497 6.540934 
7.650000 15.002191 6.540934 
8.415000 15.001322 6.540934 
9.180000 15.000640 6.540934 
9.945000 15.000371 6.540934 
10.710000 15.000189 6.540934 
11.475000 15.000071 6.540934 
12.240000 15.000032 6.540934 
13.005000 15.000011 6.540934 
13.770000 15.000001 6.540934 
14.535000 15.000000 6.540934 
15.300000 15.000000 6.540934 
16.065001 15.000000 6.540934 
16.830000 15.000000 6.540934 
17.594999 15.000000 6.540934 
18.360001 15.000000 6.540934 
19.125000 15.000000 6.540934 
19.889999 15.000005 6.540934 
20.655001 15.000258 6.540934 
21.420000 15.000345 6.540934 
22.184999 14.999656 6.540934 
22.950001 15.002845 6.540934 
23.715000 14.997187 6.540934 
24.480000 14.741318 6.540934 
29.834999 14.998363 6.540934 
30.600000 15.004267 6.540934 
31.365000 15.002137 6.540934 
32.130001 14.938169 6.540934 
-1.530000 -14.563839 7.276659 
-0.765000 -14.677720 7.310456 
-1.496486 -14.563839 7.310456 
0.000000 -14.776365 7.310456 
0.765000 -14.852627 7.310456 
1.530000 -14.906066 7.310456 
2.295000 -14.945869 7.310456 
3.060000 -14.975530 7.310456 
3.825000 -14.993342 7.310456 
4.590000 -15.003631 7.310456 
5.355000 -15.008988 7.310456 
6.120000 -15.008954 7.310456 
6.885000 -15.005812 7.310456 
7.650000 -15.004239 7.310456 
8.415000 -15.002921 7.310456 
9.180000 -15.001259 7.310456 
9.945000 -15.000607 7.310456 
10.710000 -15.000391 7.310456 
11.475000 -15.000152 7.310456 
12.240000 -15.000056 7.310456 
13.005000 -15.000032 7.310456 
13.770000 -15.000010 7.310456 
14.535000 -15.000000 7.310456 
15.300000 -15.000000 7.310456 
16.065001 -15.000000 7.310456 
16.830000 -15.000000 7.310456 
17.594999 -15.000000 7.310456 
18.360001 -15.000000 7.310456 
19.125000 -15.000003 7.310456 
19.889999 -15.000014 7.310456 
20.655001 -15.000170 7.310456 
21.420000 -15.000028 7.310456 
22.184999 -15.000795 7.310456 
22.950001 -14.994980 7.310456 
23.715000 -14.746082 7.310456 
23.865555 -14.563839 7.310456 
24.480000 -14.563839 6.694886 
29.834999 -14.563839 7.204590 
30.600000 -14.998307 7.310456 
29.942081 -14.563839 7.310456 
31.365000 -14.931998 7.310456 
31.800056 -14.563839 7.310456 
32.130001 -14.563839 6.990259 
-5.355000 -13.797321 6.724575 
-4.590000 -13.853646 7.310456 
-4.779545 -13.797321 7.310456 
-3.825000 -14.064899 7.310456 
-3.060000 -14.254059 7.310456 
-2.295000 -14.416728 7.310456 
-1.530000 -14.558516 7.310456 
24.480000 -13.797321 6.693176 
23.862534 -13.797321 7.310456 
29.834999 -13.797321 7.229309 
29.921127 -13.797321 7.310456 
32.130001 -13.797321 6.997194 
31.823790 -13.797321 7.310456 
-7.650000 -13.030804 6.664003 
-6.885000 -13.081362 7.310456 
-7.013621 -13.030804 7.310456 
-6.120000 -13.364207 7.310456 
-5.355000 -13.621620 7.310456 
24.480000 -13.030804 6.692812 
23.863285 -13.030804 7.310456 
29.834999 -13.030804 7.225402 
29.917664 -13.030804 7.310456 
32.130001 -13.030804 6.997932 
31.816605 -13.030804 7.310456 
-9.180000 -12.264286 6.853464 
-8.415000 -12.425845 7.310456 
-8.739016 -12.264286 7.310456 
-7.650000 -12.770342 7.310456 
24.480000 -12.264286 6.690635 
23.865644 -12.264286 7.310456 
29.834999 -12.264286 7.223922 
29.918028 -12.264286 7.310456 
32.130001 -12.264286 6.996655 
31.814137 -12.264286 7.310456 
-10.710000 -11.497767 6.727845 
-9.945000 -11.607121 7.310456 
-10.134809 -11.497767 7.310456 
-9.180000 -12.031899 7.310456 
24.480000 -11.497767 6.690393 
23.867373 -11.497767 7.310456 
29.834999 -11.497767 7.224315 
29.919888 -11.497767 7.310456 
32.130001 -11.497767 6.996213 
31.814745 -11.497767 7.310456 
-11.475000 -10.731250 7.185413 
-10.710000 -11.147496 7.310456 
-11.349983 -10.731250 7.310456 
24.480000 -10.731250 6.690436 
23.867006 -10.731250 7.310456 
29.834999 -10.731250 7.225668 
29.919821 -10.731250 7.310456 
32.130001 -10.731250 6.996440 
31.823292 -10.731250 7.310456 
-13.005000 -9.964732 6.699442 
-12.240000 -10.087309 7.310456 
-12.397603 -9.964732 7.310456 
-11.475000 -10.645000 7.310456 
24.480000 -9.964732 6.690503 
23.866657 -9.964732 7.310456 
29.834999 -9.964732 7.224507 
29.920595 -9.964732 7.310456 
32.130001 -9.964732 6.996939 
31.817677 -9.964732 7.310456 
-13.770000 -9.198215 6.827209 
-13.005000 -9.450982 7.310456 
-13.288170 -9.198215 7.310456 
24.480000 -9.198215 6.691014 
23.864841 -9.198215 7.310456 
29.834999 -9.198215 7.224890 
29.925461 -9.198215 7.310456 
32.130001 -9.198215 6.997849 
31.822483 -9.198215 7.310456 
-14.535000 -8.431697 6.858956 
-13.770000 -8.738504 7.310456 
-14.080715 -8.431697 7.310456 
24.480000 -8.431697 6.691210 
23.864166 -8.431697 7.310456 
29.834999 -8.431697 7.225276 
29.925852 -8.431697 7.310456 
32.130001 -8.431697 6.998293 
31.822958 -8.431697 7.310456 
-15.300000 -7.665179 6.790250 
-14.535000 -7.941791 7.310456 
-14.779627 -7.665179 7.310456 
24.480000 -7.665179 6.690492 
23.865185 -7.665179 7.310456 
29.834999 -7.665179 7.225373 
29.923000 -7.665179 7.310456 
32.130001 -7.665179 6.997712 
31.821297 -7.665179 7.310456 
-16.065001 -6.898661 6.619368 
-15.300000 -6.999536 7.310456 
-15.375977 -6.898661 7.310456 
5.355000 -6.914796 7.310456 
5.355000 -6.898661 7.293982 
5.338067 -6.898661 7.310456 
6.120000 -7.027811 7.310456 
6.120000 -6.898661 6.851841 
6.716888 -6.898661 7.310456 
24.480000 -6.898661 6.690024 
23.865980 -6.898661 7.310456 
29.834999 -6.898661 7.225235 
29.923269 -6.898661 7.310456 
32.130001 -6.898661 6.996638 
31.820812 -6.898661 7.310456 
-16.065001 -6.132143 7.138832 
-15.893330 -6.132143 7.310456 
5.355000 -6.132143 7.257648 
5.302147 -6.132143 7.310456 
6.885000 -6.861547 7.310456 
7.650000 -6.639295 7.310456 
8.415000 -6.132143 6.782811 
8.415000 -6.366922 7.310456 
8.952931 -6.132143 7.310456 
24.480000 -6.132143 6.690104 
23.866282 -6.132143 7.310456 
29.834999 -6.132143 7.224494 
29.919744 -6.132143 7.310456 
32.130001 -6.132143 6.996038 
31.815302 -6.132143 7.310456 
-16.830000 -5.365625 6.834311 
-16.065001 -5.849440 7.310456 
-16.352613 -5.365625 7.310456 
5.355000 -5.365625 7.259079 
5.303567 -5.365625 7.310456 
9.180000 -6.026348 7.310456 
9.945000 -5.365625 6.890414 
9.945000 -5.617718 7.310456 
10.349693 -5.365625 7.310456 
24.480000 -5.365625 6.690240 
23.866693 -5.365625 7.310456 
29.834999 -5.365625 7.224173 
29.922401 -5.365625 7.310456 
32.130001 -5.365625 6.995724 
31.818342 -5.365625 7.310456 
-16.830000 -4.599107 7.220152 
-16.741253 -4.599107 7.310456 
5.355000 -4.599107 7.258946 
5.303495 -4.599107 7.310456 
10.710000 -5.111446 7.310456 
10.710000 -4.599107 6.656390 
11.367832 -4.599107 7.310456 
24.480000 -4.599107 6.690350 
23.866892 -4.599107 7.310456 
29.834999 -4.599107 7.224199 
29.919975 -4.599107 7.310456 
32.130001 -4.599107 6.995464 
31.814075 -4.599107 7.310456 
-17.594999 -3.832589 6.757392 
-16.830000 -4.386268 7.310456 
-17.054699 -3.832589 7.310456 
5.355000 -3.832589 7.258961 
5.303546 -3.832589 7.310456 
11.475000 -4.500033 7.310456 
11.475000 -3.832589 6.652474 
12.130761 -3.832589 7.310456 
24.480000 -3.832589 6.690395 
23.867006 -3.832589 7.310456 
29.834999 -3.832589 7.224018 
29.919151 -3.832589 7.310456 
32.130001 -3.832589 6.995579 
31.812462 -3.832589 7.310456 
-17.594999 -3.066072 7.025029 
-17.313938 -3.066072 7.310456 
5.355000 -3.066072 7.259048 
5.303596 -3.066072 7.310456 
12.240000 -3.697552 7.310456 
12.240000 -3.066072 6.834416 
12.722503 -3.066072 7.310456 
24.480000 -3.066072 6.690380 
23.867340 -3.066072 7.310456 
29.834999 -3.066072 7.224098 
29.921761 -3.066072 7.310456 
32.130001 -3.066072 6.996608 
31.818422 -3.066072 7.310456 
-17.594999 -2.299554 7.224339 
-17.510420 -2.299554 7.310456 
5.355000 -2.299554 7.259051 
5.303596 -2.299554 7.310456 
13.005000 -2.571403 7.310456 
13.005000 -2.299554 7.165818 
13.148479 -2.299554 7.310456 
24.480000 -2.299554 6.690376 
23.867157 -2.299554 7.310456 
29.834999 -2.299554 7.225235 
29.921795 -2.299554 7.310456 
32.130001 -2.299554 6.997530 
31.820805 -2.299554 7.310456 
-18.360001 -1.533036 6.600165 
-17.594999 -1.830026 7.310456 
-17.648535 -1.533036 7.310456 
5.355000 -1.533036 7.259054 
5.303599 -1.533036 7.310456 
13.005000 -1.533036 6.867686 
13.436605 -1.533036 7.310456 
24.480000 -1.533036 6.690438 
23.867832 -1.533036 7.310456 
29.834999 -1.533036 7.225818 
29.915499 -1.533036 7.310456 
32.130001 -1.533036 6.997281 
31.814352 -1.533036 7.310456 
-18.360001 -0.766518 6.694267 
-17.737923 -0.766518 7.310456 
5.355000 -0.766518 7.259059 
5.303604 -0.766518 7.310456 
13.005000 -0.766518 6.682997 
13.627060 -0.766518 7.310456 
24.480000 -0.766518 6.690562 
23.867992 -0.766518 7.310456 
29.834999 -0.766518 7.225775 
29.915438 -0.766518 7.310456 
32.130001 -0.766518 6.996557 
31.813400 -0.766518 7.310456 
-18.360001 0.000000 6.723595 
-17.774351 0.000000 7.310456 
5.355000 0.000000 7.259060 
5.303605 0.000000 7.310456 
13.005000 0.000000 6.612454 
13.690950 0.000000 7.310456 
24.480000 0.000000 6.690575 
23.866858 0.000000 7.310456 
29.834999 0.000000 7.225324 
29.918165 0.000000 7.310456 
32.130001 0.000000 6.995834 
31.813744 0.000000 7.310456 
-18.360001 0.766518 6.693963 
-17.748610 0.766518 7.310456 
5.355000 0.766518 7.259057 
5.303601 0.766518 7.310456 
13.005000 0.766518 6.665475 
13.637545 0.766518 7.310456 
24.480000 0.766518 6.690466 
23.867273 0.766518 7.310456 
29.834999 0.766518 7.224571 
29.922800 0.766518 7.310456 
32.130001 0.766518 6.995223 
31.816507 0.766518 7.310456 
-18.360001 1.533036 6.604761 
-17.656355 1.533036 7.310456 
5.355000 1.533036 7.259048 
5.303593 1.533036 7.310456 
13.005000 1.533036 6.830928 
13.475038 1.533036 7.310456 
24.480000 1.533036 6.690357 
23.868002 1.533036 7.310456 
29.834999 1.533036 7.223663 
29.921270 1.533036 7.310456 
32.130001 1.533036 6.994840 
31.813755 1.533036 7.310456 
-17.594999 1.853866 7.310456 
-17.594999 2.299554 7.224396 
-17.508291 2.299554 7.310456 
5.355000 2.299554 7.259041 
5.303586 2.299554 7.310456 
13.005000 2.299554 7.137796 
13.172690 2.299554 7.310456 
24.480000 2.299554 6.690286 
23.866898 2.299554 7.310456 
29.834999 2.299554 7.222704 
29.924994 2.299554 7.310456 
32.130001 2.299554 6.994487 
31.817148 2.299554 7.310456 
-17.594999 3.066072 7.026279 
-17.310760 3.066072 7.310456 
5.355000 3.066072 7.259046 
5.303589 3.066072 7.310456 
12.240000 3.066072 6.802324 
13.005000 2.607605 7.310456 
12.740213 3.066072 7.310456 
24.480000 3.066072 6.690218 
23.866703 3.066072 7.310456 
29.834999 3.066072 7.221122 
29.922640 3.066072 7.310456 
32.130001 3.066072 6.994284 
31.811935 3.066072 7.310456 
-17.594999 3.832589 6.772413 
-17.059248 3.832589 7.310456 
5.355000 3.832589 7.259053 
5.303597 3.832589 7.310456 
11.475000 3.832589 6.628768 
12.240000 3.733866 7.310456 
12.158649 3.832589 7.310456 
24.480000 3.832589 6.690259 
23.867105 3.832589 7.310456 
29.834999 3.832589 7.220981 
29.923120 3.832589 7.310456 
32.130001 3.832589 6.994352 
31.811678 3.832589 7.310456 
-16.830000 4.387799 7.310456 
-16.830000 4.599107 7.220706 
-16.740147 4.599107 7.310456 
5.355000 4.599107 7.259001 
5.303591 4.599107 7.310456 
10.710000 4.599107 6.634460 
11.475000 4.508202 7.310456 
11.375468 4.599107 7.310456 
24.480000 4.599107 6.690443 
23.867668 4.599107 7.310456 
29.834999 4.599107 7.222188 
29.920418 4.599107 7.310456 
32.130001 4.599107 6.994459 
31.812748 4.599107 7.310456 
-16.830000 5.365625 6.830912 
-16.346493 5.365625 7.310456 
5.355000 5.365625 7.258147 
5.302927 5.365625 7.310456 
9.945000 5.365625 6.875548 
10.710000 5.123651 7.310456 
10.366921 5.365625 7.310456 
24.480000 5.365625 6.690585 
23.868059 5.365625 7.310456 
29.834999 5.365625 7.222373 
29.920578 5.365625 7.310456 
32.130001 5.365625 6.994793 
31.813139 5.365625 7.310456 
-16.065001 5.842916 7.310456 
-16.065001 6.132143 7.137414 
-15.889752 6.132143 7.310456 
5.355000 6.132143 7.261561 
5.305764 6.132143 7.310456 
8.415000 6.132143 6.781587 
9.180000 6.024401 7.310456 
8.940087 6.132143 7.310456 
9.945000 5.623970 7.310456 
24.480000 6.132143 6.690537 
23.867886 6.132143 7.310456 
29.834999 6.132143 7.222086 
29.920910 6.132143 7.310456 
32.130001 6.132143 6.994824 
31.813324 6.132143 7.310456 
-16.065001 6.898661 6.617646 
-15.366245 6.898661 7.310456 
5.355000 6.898661 7.278164 
5.321765 6.898661 7.310456 
6.120000 6.898661 6.815873 
6.885000 6.849853 7.310456 
6.677222 6.898661 7.310456 
7.650000 6.624631 7.310456 
8.415000 6.353044 7.310456 
24.480000 6.898661 6.690407 
23.867640 6.898661 7.310456 
29.834999 6.898661 7.223744 
29.925009 6.898661 7.310456 
32.130001 6.898661 6.994717 
31.816975 6.898661 7.310456 
-15.300000 6.986990 7.310456 
-15.300000 7.665179 6.787340 
-14.778715 7.665179 7.310456 
5.355000 6.930022 7.310456 
6.120000 7.026861 7.310456 
24.480000 7.665179 6.690715 
23.866257 7.665179 7.310456 
29.834999 7.665179 7.224860 
29.922022 7.665179 7.310456 
32.130001 7.665179 6.995084 
31.817366 7.665179 7.310456 
-14.535000 7.943149 7.310456 
-14.535000 8.431697 6.861639 
-14.083503 8.431697 7.310456 
24.480000 8.431697 6.691813 
23.863163 8.431697 7.310456 
29.834999 8.431697 7.224619 
29.922762 8.431697 7.310456 
32.130001 8.431697 6.995301 
31.820313 8.431697 7.310456 
-13.770000 8.739290 7.310456 
-13.770000 9.198215 6.820061 
-13.282478 9.198215 7.310456 
24.480000 9.198215 6.692722 
23.861853 9.198215 7.310456 
29.834999 9.198215 7.224099 
29.919981 9.198215 7.310456 
32.130001 9.198215 6.994850 
31.814844 9.198215 7.310456 
-13.005000 9.440658 7.310456 
-13.005000 9.964732 6.676216 
-12.388469 9.964732 7.310456 
24.480000 9.964732 6.692876 
23.862488 9.964732 7.310456 
29.834999 9.964732 7.224814 
29.918331 9.964732 7.310456 
32.130001 9.964732 6.994647 
31.812466 9.964732 7.310456 
-12.240000 10.083773 7.310456 
-11.475000 10.731250 7.195385 
-11.475000 10.651280 7.310456 
-11.359384 10.731250 7.310456 
24.480000 10.731250 6.692215 
23.863115 10.731250 7.310456 
29.834999 10.731250 7.225536 
29.921232 10.731250 7.310456 
32.130001 10.731250 6.994813 
31.818890 10.731250 7.310456 
-10.710000 11.151489 7.310456 
-10.710000 11.497767 6.745312 
-10.147513 11.497767 7.310456 
24.480000 11.497767 6.691018 
23.864567 11.497767 7.310456 
29.834999 11.497767 7.225572 
29.920410 11.497767 7.310456 
32.130001 11.497767 6.995067 
31.817478 11.497767 7.310456 
-9.945000 11.615805 7.310456 
-9.180000 12.264286 6.850124 
-9.180000 12.033422 7.310456 
-8.719599 12.264286 7.310456 
24.480000 12.264286 6.690866 
23.864969 12.264286 7.310456 
29.834999 12.264286 7.225584 
29.920223 12.264286 7.310456 
32.130001 12.264286 6.995773 
31.814960 12.264286 7.310456 
-8.415000 12.410635 7.310456 
-7.650000 13.030804 6.665038 
-7.650000 12.751494 7.310456 
-6.977870 13.030804 7.310456 
24.480000 13.030804 6.692582 
23.863398 13.030804 7.310456 
29.834999 13.030804 7.226306 
29.918545 13.030804 7.310456 
32.130001 13.030804 6.996884 
31.815308 13.030804 7.310456 
-6.885000 13.068145 7.310456 
-6.120000 13.361468 7.310456 
-5.355000 13.797321 6.764164 
-5.355000 13.629004 7.310456 
-4.808364 13.797321 7.310456 
24.480000 13.797321 6.693036 
23.861761 13.797321 7.310456 
29.834999 13.797321 7.227723 
29.918171 13.797321 7.310456 
32.130001 13.797321 6.994723 
31.812313 13.797321 7.310456 
-4.590000 13.862111 7.310456 
-3.825000 14.068447 7.310456 
-3.060000 14.247146 7.310456 
-2.295000 14.402105 7.310456 
-1.530000 14.563839 7.193325 
-1.530000 14.545408 7.310456 
-1.416451 14.563839 7.310456 
24.480000 14.563839 6.689867 
23.860044 14.563839 7.310456 
29.834999 14.563839 7.206440 
29.939127 14.563839 7.310456 
32.130001 14.563839 6.988121 
31.810467 14.563839 7.310456 
-0.765000 14.667459 7.310456 
0.000000 14.764876 7.310456 
0.765000 14.843152 7.310456 
1.530000 14.902245 7.310456 
2.295000 14.947121 7.310456 
3.060000 14.977364 7.310456 
3.825000 14.991773 7.310456 
4.590000 15.000004 7.310456 
5.355000 15.005501 7.310456 
6.120000 15.006366 7.310456 
6.885000 15.004371 7.310456 
7.650000 15.003429 7.310456 
8.415000 15.002462 7.310456 
9.180000 15.001227 7.310456 
9.945000 15.000690 7.310456 
10.710000 15.000434 7.310456 
11.475000 15.000171 7.310456 
12.240000 15.000072 7.310456 
13.005000 15.000039 7.310456 
13.770000 15.000010 7.310456 
14.535000 15.000000 7.310456 
15.300000 15.000000 7.310456 
16.065001 15.000000 7.310456 
16.830000 15.000000 7.310456 
17.594999 15.000000 7.310456 
18.360001 15.000000 7.310456 
19.125000 15.000003 7.310456 
19.889999 15.000014 7.310456 
20.655001 15.000145 7.310456 
21.420000 14.999954 7.310456 
22.184999 15.000193 7.310456 
22.950001 14.995266 7.310456 
23.715000 14.740350 7.310456 
30.600000 14.998273 7.310456 
31.365000 14.946087 7.310456 
-0.765000 -14.563839 8.047431 
0.000000 -14.679339 8.079977 
-0.733066 -14.563839 8.079977 
0.765000 -14.779681 8.079977 
1.530000 -14.851869 8.079977 
2.295000 -14.904407 8.079977 
3.060000 -14.945546 8.079977 
3.825000 -14.975112 8.079977 
4.590000 -14.994904 8.079977 
5.355000 -15.004639 8.079977 
6.120000 -15.007318 8.079977 
6.885000 -15.006703 8.079977 
7.650000 -15.005075 8.079977 
8.415000 -15.003795 8.079977 
9.180000 -15.002183 8.079977 
9.945000 -15.001060 8.079977 
10.710000 -15.000611 8.079977 
11.475000 -15.000305 8.079977 
12.240000 -15.000135 8.079977 
13.005000 -15.000064 8.079977 
13.770000 -15.000031 8.079977 
14.535000 -15.000012 8.079977 
15.300000 -15.000003 8.079977 
16.065001 -15.000000 8.079977 
16.830000 -15.000000 8.079977 
17.594999 -15.000000 8.079977 
18.360001 -15.000000 8.079977 
19.125000 -15.000004 8.079977 
19.889999 -15.000019 8.079977 
20.655001 -15.000100 8.079977 
21.420000 -15.000268 8.079977 
22.184999 -15.002410 8.079977 
22.950001 -14.732484 8.079977 
23.091146 -14.563839 8.079977 
23.715000 -14.563839 7.468005 
30.600000 -14.563839 7.957314 
31.365000 -14.563839 7.742195 
-4.590000 -13.797321 7.498555 
-3.825000 -13.854104 8.079977 
-4.012882 -13.797321 8.079977 
-3.060000 -14.064476 8.079977 
-2.295000 -14.251256 8.079977 
-1.530000 -14.416606 8.079977 
-0.765000 -14.558696 8.079977 
23.715000 -13.797321 7.459379 
23.115103 -13.797321 8.079977 
30.600000 -13.797321 7.977847 
31.365000 -13.797321 7.771892 
-6.885000 -13.030804 7.436695 
-6.120000 -13.078124 8.079977 
-6.238075 -13.030804 8.079977 
-5.355000 -13.359880 8.079977 
-4.590000 -13.618495 8.079977 
23.715000 -13.030804 7.460000 
23.122717 -13.030804 8.079977 
30.600000 -13.030804 7.985042 
31.365000 -13.030804 7.758662 
-8.415000 -12.264286 7.641376 
-7.650000 -12.418596 8.079977 
-7.969478 -12.264286 8.079977 
-6.885000 -12.760337 8.079977 
23.715000 -12.264286 7.462632 
23.124302 -12.264286 8.079977 
30.600000 -12.264286 7.987813 
31.365000 -12.264286 7.753615 
-9.945000 -11.497767 7.501737 
-9.180000 -11.612020 8.079977 
-9.375528 -11.497767 8.079977 
-8.415000 -12.037682 8.079977 
23.715000 -11.497767 7.464317 
23.114382 -11.497767 8.079977 
30.600000 -11.497767 7.986144 
31.365000 -11.497767 7.753907 
-10.710000 -10.731250 7.951716 
-9.945000 -11.146826 8.079977 
-10.581858 -10.731250 8.079977 
23.715000 -10.731250 7.464521 
23.119364 -10.731250 8.079977 
30.600000 -10.731250 7.983323 
31.365000 -10.731250 7.763164 
-12.240000 -9.964732 7.470292 
-11.475000 -10.085892 8.079977 
-11.633110 -9.964732 8.079977 
-10.710000 -10.643028 8.079977 
23.715000 -9.964732 7.463564 
23.111336 -9.964732 8.079977 
30.600000 -9.964732 7.990172 
31.365000 -9.964732 7.767164 
-13.005000 -9.198215 7.595883 
-12.240000 -9.456913 8.079977 
-12.528135 -9.198215 8.079977 
23.715000 -9.198215 7.462024 
23.124483 -9.198215 8.079977 
30.600000 -9.198215 7.969671 
31.365000 -9.198215 7.765764 
-13.770000 -8.431697 7.620479 
-13.005000 -8.735649 8.079977 
-13.309750 -8.431697 8.079977 
23.715000 -8.431697 7.460892 
23.115480 -8.431697 8.079977 
30.600000 -8.431697 7.965609 
31.365000 -8.431697 7.765355 
-14.535000 -7.665179 7.556083 
-13.770000 -7.932218 8.079977 
-14.007431 -7.665179 8.079977 
23.715000 -7.665179 7.456927 
23.107771 -7.665179 8.079977 
30.600000 -7.665179 7.968966 
31.365000 -7.665179 7.763806 
-15.300000 -6.898661 7.387092 
-14.535000 -7.000267 8.079977 
-14.611942 -6.898661 8.079977 
4.590000 -6.953977 8.079977 
4.590000 -6.898661 8.036558 
4.546356 -6.898661 8.079977 
5.355000 -7.233057 8.079977 
6.120000 -7.151482 8.079977 
6.885000 -6.898661 7.483904 
6.885000 -7.025258 8.079977 
7.485011 -6.898661 8.079977 
23.715000 -6.898661 7.462343 
23.109741 -6.898661 8.079977 
30.600000 -6.898661 7.978406 
31.365000 -6.898661 7.759564 
-15.300000 -6.132143 7.907227 
-15.128526 -6.132143 8.079977 
4.590000 -6.132143 8.022684 
4.532712 -6.132143 8.079977 
7.650000 -6.862045 8.079977 
8.415000 -6.645070 8.079977 
9.180000 -6.132143 7.540138 
9.180000 -6.364339 8.079977 
9.717510 -6.132143 8.079977 
23.715000 -6.132143 7.461608 
23.108160 -6.132143 8.079977 
30.600000 -6.132143 7.985075 
31.365000 -6.132143 7.754593 
-16.065001 -5.365625 7.598526 
-15.300000 -5.847071 8.079977 
-15.584094 -5.365625 8.079977 
4.590000 -5.365625 8.023957 
4.534014 -5.365625 8.079977 
9.945000 -6.024255 8.079977 
10.710000 -5.365625 7.691910 
10.710000 -5.595921 8.079977 
11.092829 -5.365625 8.079977 
23.715000 -5.365625 7.462878 
23.109583 -5.365625 8.079977 
30.600000 -5.365625 7.982551 
31.365000 -5.365625 7.757757 
-16.065001 -4.599107 7.991882 
-15.976827 -4.599107 8.079977 
4.590000 -4.599107 8.024046 
4.534073 -4.599107 8.079977 
11.475000 -5.110190 8.079977 
11.475000 -4.599107 7.417510 
12.148880 -4.599107 8.079977 
23.715000 -4.599107 7.463751 
23.123714 -4.599107 8.079977 
30.600000 -4.599107 7.985452 
31.365000 -4.599107 7.753027 
-16.830000 -3.832589 7.538212 
-16.065001 -4.384633 8.079977 
-16.287355 -3.832589 8.079977 
4.590000 -3.832589 8.024050 
4.534071 -3.832589 8.079977 
12.240000 -4.516414 8.079977 
12.240000 -3.832589 7.417846 
12.925236 -3.832589 8.079977 
23.715000 -3.832589 7.461262 
23.117922 -3.832589 8.079977 
30.600000 -3.832589 7.989405 
31.365000 -3.832589 7.757447 
-16.830000 -3.066072 7.796547 
-16.544773 -3.066072 8.079977 
4.590000 -3.066072 8.024055 
4.534077 -3.066072 8.079977 
13.005000 -3.735789 8.079977 
13.005000 -3.066072 7.583957 
13.515169 -3.066072 8.079977 
23.715000 -3.066072 7.465232 
23.112270 -3.066072 8.079977 
30.600000 -3.066072 7.974695 
31.365000 -3.066072 7.762683 
-16.830000 -2.299554 8.001681 
-16.752369 -2.299554 8.079977 
4.590000 -2.299554 8.024061 
4.534083 -2.299554 8.079977 
13.770000 -2.610970 8.079977 
13.770000 -2.299554 7.920996 
13.933038 -2.299554 8.079977 
23.715000 -2.299554 7.463561 
23.131502 -2.299554 8.079977 
30.600000 -2.299554 7.969712 
31.365000 -2.299554 7.760592 
-17.594999 -1.533036 7.363929 
-16.830000 -1.849620 8.079977 
-16.883835 -1.533036 8.079977 
4.590000 -1.533036 8.024063 
4.534086 -1.533036 8.079977 
13.770000 -1.533036 7.641147 
14.219074 -1.533036 8.079977 
23.715000 -1.533036 7.464745 
23.116713 -1.533036 8.079977 
30.600000 -1.533036 7.982284 
31.365000 -1.533036 7.751445 
-17.594999 -0.766518 7.452183 
-16.964123 -0.766518 8.079977 
4.590000 -0.766518 8.024065 
4.534088 -0.766518 8.079977 
13.770000 -0.766518 7.453273 
14.399906 -0.766518 8.079977 
23.715000 -0.766518 7.465268 
23.111563 -0.766518 8.079977 
30.600000 -0.766518 7.984236 
31.365000 -0.766518 7.750716 
-17.594999 0.000000 7.489297 
-16.999628 0.000000 8.079977 
4.590000 0.000000 8.024064 
4.534087 0.000000 8.079977 
13.770000 0.000000 7.390872 
14.452332 0.000000 8.079977 
23.715000 0.000000 7.464676 
23.112062 0.000000 8.079977 
30.600000 0.000000 7.981825 
31.365000 0.000000 7.756822 
-17.594999 0.766518 7.463686 
-16.973354 0.766518 8.079977 
4.590000 0.766518 8.024061 
4.534084 0.766518 8.079977 
13.770000 0.766518 7.445745 
14.405601 0.766518 8.079977 
23.715000 0.766518 7.465281 
23.111668 0.766518 8.079977 
30.600000 0.766518 7.980460 
31.365000 0.766518 7.756870 
-17.594999 1.533036 7.371400 
-16.877178 1.533036 8.079977 
4.590000 1.533036 8.024054 
4.534076 1.533036 8.079977 
13.770000 1.533036 7.610753 
14.240293 1.533036 8.079977 
23.715000 1.533036 7.464909 
23.111366 1.533036 8.079977 
30.600000 1.533036 7.979954 
31.365000 1.533036 7.760111 
-16.830000 1.782049 8.079977 
-16.830000 2.299554 7.981861 
-16.731091 2.299554 8.079977 
4.590000 2.299554 8.024044 
4.534068 2.299554 8.079977 
13.770000 2.299554 7.917860 
13.931645 2.299554 8.079977 
23.715000 2.299554 7.463783 
23.119396 2.299554 8.079977 
30.600000 2.299554 7.979920 
31.365000 2.299554 7.758492 
-16.830000 3.066072 7.788089 
-16.536863 3.066072 8.079977 
4.590000 3.066072 8.024052 
4.534075 3.066072 8.079977 
13.005000 3.066072 7.579504 
13.770000 2.595271 8.079977 
13.499594 3.066072 8.079977 
23.715000 3.066072 7.463653 
23.118254 3.066072 8.079977 
30.600000 3.066072 7.984147 
31.365000 3.066072 7.764454 
-16.830000 3.832589 7.540352 
-16.291153 3.832589 8.079977 
4.590000 3.832589 8.024064 
4.534087 3.832589 8.079977 
12.240000 3.832589 7.391053 
13.005000 3.727691 8.079977 
12.920882 3.832589 8.079977 
23.715000 3.832589 7.461483 
23.114590 3.832589 8.079977 
30.600000 3.832589 7.977310 
31.365000 3.832589 7.761215 
-16.065001 4.373756 8.079977 
-16.065001 4.599107 7.983438 
-15.967602 4.599107 8.079977 
4.590000 4.599107 8.024063 
4.534087 4.599107 8.079977 
11.475000 4.599107 7.409505 
12.240000 4.521136 8.079977 
12.154119 4.599107 8.079977 
23.715000 4.599107 7.464441 
23.113247 4.599107 8.079977 
30.600000 4.599107 7.974832 
31.365000 4.599107 7.756525 
-16.065001 5.365625 7.589174 
-15.568969 5.365625 8.079977 
4.590000 5.365625 8.023937 
4.534010 5.365625 8.079977 
10.710000 5.365625 7.661029 
11.475000 5.126906 8.079977 
11.127885 5.365625 8.079977 
23.715000 5.365625 7.465959 
23.112501 5.365625 8.079977 
30.600000 5.365625 7.987394 
31.365000 5.365625 7.762816 
-15.300000 5.827284 8.079977 
-15.300000 6.132143 7.898236 
-15.122190 6.132143 8.079977 
4.590000 6.132143 8.022750 
4.532670 6.132143 8.079977 
9.180000 6.132143 7.556055 
9.945000 6.015540 8.079977 
9.689245 6.132143 8.079977 
10.710000 5.616575 8.079977 
23.715000 6.132143 7.467360 
23.112984 6.132143 8.079977 
30.600000 6.132143 7.986129 
31.365000 6.132143 7.753856 
-15.300000 6.898661 7.377108 
-14.618309 6.898661 8.079977 
4.590000 6.898661 8.035068 
4.545207 6.898661 8.079977 
6.885000 6.898661 7.519858 
7.650000 6.851942 8.079977 
7.451434 6.898661 8.079977 
8.415000 6.628228 8.079977 
9.180000 6.346980 8.079977 
23.715000 6.898661 7.465044 
23.113420 6.898661 8.079977 
30.600000 6.898661 7.974766 
