13.061468 -37.075199 -6.278294 
13.383973 -37.079365 -6.278294 
13.706479 -37.084110 -6.278294 
14.028984 -37.090443 -6.278294 
14.351489 -37.100502 -6.278294 
14.673995 -37.116020 -6.278294 
14.996500 -37.142498 -6.278294 
15.319006 -37.180363 -6.278294 
18.221554 -37.077080 -6.278294 
18.331837 -36.861843 -6.278294 
-12.546138 -36.539906 -6.278294 
0.483758 -36.803711 -6.278294 
0.806263 -36.644455 -6.278294 
0.946842 -36.539906 -6.278294 
5.321339 -36.563099 -6.278294 
5.285422 -36.539906 -6.278294 
5.321339 -36.539906 -6.378280 
5.643844 -36.728310 -6.278294 
5.966350 -36.857979 -6.278294 
18.351326 -36.539906 -6.278294 
-12.534068 -36.217968 -6.278294 
1.128769 -36.375874 -6.278294 
1.290801 -36.217968 -6.278294 
1.451274 -36.217968 -6.594894 
4.998833 -36.293491 -6.278294 
4.930634 -36.217968 -6.278294 
4.998833 -36.217968 -6.478529 
18.315758 -36.217968 -6.278294 
-12.513098 -35.896030 -6.278294 
1.451274 -36.013542 -6.278294 
1.520946 -35.896030 -6.278294 
4.711318 -35.896030 -6.278294 
18.277903 -35.896030 -6.278294 
-12.464459 -35.574093 -6.278294 
-12.416457 -35.574093 -6.550774 
1.620590 -35.574093 -6.278294 
4.676328 -35.795250 -6.278294 
4.603640 -35.574093 -6.278294 
4.676328 -35.574093 -6.462747 
18.249500 -35.574093 -6.278294 
-12.416457 -35.340046 -6.278294 
-12.398160 -35.252155 -6.278294 
1.685201 -35.252155 -6.278294 
4.508823 -35.252155 -6.278294 
18.221554 -35.309010 -6.278294 
18.221554 -35.252155 -6.409356 
18.215563 -35.252155 -6.278294 
-12.337042 -34.930218 -6.278294 
1.710480 -34.930218 -6.278294 
4.489549 -34.930218 -6.278294 
18.178612 -34.930218 -6.278294 
-12.261376 -34.608280 -6.278294 
1.773780 -34.608280 -6.537538 
1.733866 -34.608280 -6.278294 
4.476354 -34.608280 -6.278294 
18.143076 -34.608280 -6.278294 
-12.150079 -34.286343 -6.278294 
-12.093952 -34.286343 -6.546851 
1.773780 -34.286343 -6.400160 
1.754554 -34.286343 -6.278294 
4.485662 -34.286343 -6.278294 
18.119093 -34.286343 -6.278294 
-12.093952 -34.144314 -6.278294 
-12.020433 -33.964405 -6.278294 
1.773780 -34.003479 -6.278294 
1.776304 -33.964405 -6.278294 
4.491892 -33.964405 -6.278294 
18.101889 -33.964405 -6.278294 
-11.889376 -33.642467 -6.278294 
1.797624 -33.642467 -6.278294 
4.497018 -33.642467 -6.278294 
18.082695 -33.642467 -6.278294 
-11.771446 -33.338490 -6.278294 
-11.764593 -33.320530 -6.278294 
1.810703 -33.320530 -6.278294 
4.479868 -33.320530 -6.278294 
18.037422 -33.320530 -6.278294 
-11.655087 -32.998592 -6.278294 
1.812696 -32.998592 -6.278294 
4.444045 -32.998592 -6.278294 
17.965921 -32.998592 -6.278294 
-11.549905 -32.676655 -6.278294 
1.812062 -32.676655 -6.278294 
4.404778 -32.676655 -6.278294 
17.899048 -32.705345 -6.278294 
17.899048 -32.676655 -6.357200 
17.892504 -32.676655 -6.278294 
-11.448941 -32.379044 -6.278294 
-11.441037 -32.354717 -6.278294 
1.813985 -32.354717 -6.278294 
4.361914 -32.354717 -6.278294 
17.827681 -32.354717 -6.278294 
-11.381979 -32.032780 -6.278294 
1.823285 -32.032780 -6.278294 
4.353823 -32.292496 -6.278294 
4.320408 -32.032780 -6.278294 
4.353823 -32.032780 -6.427251 
17.772324 -32.032780 -6.278294 
-11.351241 -31.710844 -6.278294 
1.837475 -31.710844 -6.278294 
4.286533 -31.710844 -6.278294 
4.353823 -31.710844 -6.579671 
17.709234 -31.710844 -6.278294 
-11.313573 -31.388906 -6.278294 
1.851846 -31.388906 -6.278294 
4.277419 -31.388906 -6.278294 
17.636204 -31.388906 -6.278294 
-11.258175 -31.066969 -6.278294 
1.872409 -31.066969 -6.278294 
4.286477 -31.066969 -6.278294 
17.576544 -31.131357 -6.278294 
17.561588 -31.066969 -6.278294 
-11.191654 -30.745031 -6.278294 
1.909499 -30.745031 -6.278294 
4.307740 -30.745031 -6.278294 
17.495844 -30.745031 -6.278294 
-11.126435 -30.423403 -6.278294 
-11.126373 -30.423094 -6.278294 
1.950107 -30.423094 -6.278294 
4.330101 -30.423094 -6.278294 
4.353823 -30.423094 -6.507875 
17.437195 -30.423094 -6.278294 
-11.065928 -30.101156 -6.278294 
1.991228 -30.101156 -6.278294 
4.352062 -30.101156 -6.278294 
4.353823 -30.101156 -6.300148 
17.381397 -30.101156 -6.278294 
-11.011176 -29.779219 -6.278294 
2.096285 -29.779219 -6.570636 
2.033227 -29.779219 -6.278294 
4.353823 -30.053574 -6.278294 
4.363986 -29.779219 -6.278294 
17.331652 -29.779219 -6.278294 
-10.957423 -29.457281 -6.278294 
2.096285 -29.457281 -6.365541 
2.076112 -29.457281 -6.278294 
4.353823 -29.564468 -6.278294 
4.348686 -29.457281 -6.278294 
4.353823 -29.457281 -6.333622 
17.254038 -29.457281 -6.597580 
17.275909 -29.457281 -6.278294 
-10.895872 -29.135344 -6.278294 
2.096285 -29.298544 -6.278294 
2.116961 -29.135344 -6.278294 
4.306782 -29.135344 -6.278294 
17.254038 -29.347776 -6.278294 
17.211170 -29.135344 -6.278294 
-10.823924 -28.813406 -6.278294 
2.154165 -28.813406 -6.278294 
4.240978 -28.813406 -6.278294 
17.149065 -28.813406 -6.278294 
-10.803930 -28.722942 -6.278294 
-10.752574 -28.491468 -6.278294 
2.177807 -28.491468 -6.278294 
4.160409 -28.491468 -6.278294 
17.098986 -28.491468 -6.278294 
-10.694918 -28.169531 -6.278294 
2.190768 -28.169531 -6.278294 
4.084441 -28.169531 -6.278294 
17.065615 -28.169531 -6.278294 
-10.646280 -27.847593 -6.278294 
2.196647 -27.847593 -6.278294 
4.045346 -27.847593 -6.278294 
17.037369 -27.847593 -6.278294 
-10.609880 -27.525656 -6.278294 
2.192822 -27.525656 -6.278294 
4.031317 -27.654119 -6.278294 
4.022506 -27.525656 -6.278294 
4.031317 -27.525656 -6.313598 
17.003979 -27.525656 -6.278294 
-10.587668 -27.203718 -6.278294 
2.208683 -27.203718 -6.278294 
4.008032 -27.203718 -6.278294 
4.031317 -27.203718 -6.395811 
16.931532 -27.203718 -6.455324 
16.952364 -27.203718 -6.278294 
-10.565175 -26.881781 -6.278294 
2.240634 -26.881781 -6.278294 
3.996353 -26.881781 -6.278294 
4.031317 -26.881781 -6.503375 
16.931532 -27.097973 -6.278294 
16.888334 -26.881781 -6.278294 
-10.536169 -26.559843 -6.278294 
2.301961 -26.559843 -6.278294 
3.971116 -26.559843 -6.278294 
16.822552 -26.559843 -6.278294 
-10.498634 -26.237906 -6.278294 
2.382456 -26.237906 -6.278294 
3.940337 -26.237906 -6.278294 
16.762560 -26.237906 -6.278294 
-10.481425 -26.114326 -6.278294 
-10.453520 -25.915968 -6.278294 
2.418790 -26.115009 -6.278294 
2.477123 -25.915968 -6.278294 
3.903893 -25.915968 -6.278294 
16.713209 -25.915968 -6.278294 
-10.400250 -25.594030 -6.278294 
2.565201 -25.594030 -6.278294 
3.861457 -25.594030 -6.278294 
16.664392 -25.594030 -6.278294 
-10.339750 -25.272093 -6.278294 
2.646617 -25.272093 -6.278294 
3.816104 -25.272093 -6.278294 
16.609028 -25.272093 -6.284184 
16.609217 -25.272093 -6.278294 
-10.280164 -24.950157 -6.278294 
2.741296 -24.977297 -6.278294 
2.749675 -24.950157 -6.278294 
3.741964 -24.950157 -6.278294 
16.609028 -25.270844 -6.278294 
16.560648 -24.950157 -6.278294 
-10.224249 -24.628220 -6.278294 
2.898625 -24.628220 -6.278294 
3.708812 -24.851122 -6.278294 
3.625013 -24.628220 -6.278294 
16.525297 -24.628220 -6.278294 
-10.170586 -24.306282 -6.278294 
3.063801 -24.447012 -6.278294 
3.386307 -24.357302 -6.278294 
16.494192 -24.306282 -6.278294 
-10.158919 -23.984344 -6.517114 
-10.158919 -24.221020 -6.278294 
-10.126560 -23.984344 -6.278294 
16.461792 -23.984344 -6.278294 
-10.106544 -23.662407 -6.278294 
16.422909 -23.662407 -6.278294 
-10.087447 -23.340469 -6.278294 
16.379549 -23.340469 -6.278294 
-10.044809 -23.018532 -6.278294 
16.342024 -23.018532 -6.278294 
-9.990391 -22.696594 -6.278294 
16.286522 -22.696594 -6.305900 
16.289984 -22.696594 -6.278294 
-9.917516 -22.374657 -6.278294 
16.286522 -22.679321 -6.278294 
16.223547 -22.374657 -6.278294 
-9.839658 -22.052719 -6.278294 
16.160292 -22.052719 -6.278294 
-9.836414 -22.038073 -6.278294 
-9.769610 -21.730782 -6.278294 
16.101059 -21.730782 -6.278294 
-9.689305 -21.408844 -6.278294 
16.056873 -21.408844 -6.278294 
-9.592283 -21.086906 -6.278294 
16.024271 -21.086906 -6.278294 
-9.513908 -20.764969 -6.414690 
-9.513908 -20.827063 -6.278294 
-9.495193 -20.764969 -6.278294 
15.991533 -20.764969 -6.278294 
-9.397850 -20.443031 -6.278294 
15.964016 -20.512096 -6.278294 
15.956418 -20.443031 -6.278294 
-9.316740 -20.121094 -6.278294 
15.919477 -20.121094 -6.278294 
-9.253365 -19.799156 -6.278294 
15.877512 -19.799156 -6.278294 
-9.191403 -19.477219 -6.293496 
-9.191403 -19.486940 -6.278294 
-9.189484 -19.477219 -6.278294 
15.833271 -19.477219 -6.278294 
-9.125788 -19.155281 -6.278294 
15.788670 -19.155281 -6.278294 
-9.069625 -18.833344 -6.278294 
15.744943 -18.833344 -6.278294 
-9.016735 -18.511406 -6.278294 
15.702094 -18.511406 -6.278294 
-8.960892 -18.189468 -6.278294 
15.641511 -18.189468 -6.561990 
15.656466 -18.189468 -6.278294 
-8.908681 -17.867531 -6.278294 
15.641511 -18.092619 -6.278294 
15.606309 -17.867531 -6.278294 
-8.868898 -17.545593 -6.308238 
-8.868898 -17.575878 -6.278294 
-8.864823 -17.545593 -6.278294 
15.553402 -17.545593 -6.278294 
-8.826297 -17.223656 -6.278294 
15.499097 -17.223656 -6.278294 
-8.795517 -16.901718 -6.278294 
15.444986 -16.901718 -6.278294 
-8.773064 -16.579781 -6.278294 
15.407313 -16.579781 -6.278294 
-8.740782 -16.257843 -6.278294 
15.386305 -16.257843 -6.278294 
-8.701337 -15.935906 -6.278294 
15.358522 -15.935906 -6.278294 
-8.661252 -15.613969 -6.278294 
15.330100 -15.613969 -6.278294 
-8.586304 -15.292031 -6.278294 
15.323333 -15.292031 -6.278294 
-8.546392 -15.159686 -6.278294 
-8.490627 -14.970094 -6.278294 
15.335169 -14.970094 -6.278294 
-8.426217 -14.648156 -6.278294 
15.351615 -14.648156 -6.278294 
-8.383891 -14.326219 -6.278294 
15.353308 -14.326219 -6.278294 
-8.360666 -14.004281 -6.278294 
15.322342 -14.004281 -6.278294 
-8.317544 -13.682343 -6.278294 
15.319006 -13.980668 -6.278294 
15.275882 -13.682343 -6.278294 
-8.223887 -13.360406 -6.377885 
-8.223887 -13.418910 -6.278294 
-8.201193 -13.360406 -6.278294 
15.222831 -13.360406 -6.278294 
-8.064016 -13.038468 -6.278294 
15.144444 -13.038468 -6.278294 
-8.002099 -12.716531 -6.278294 
15.053723 -12.716531 -6.278294 
-7.983186 -12.394594 -6.278294 
14.996500 -12.488827 -6.278294 
14.973074 -12.394594 -6.278294 
-7.965991 -12.072657 -6.278294 
14.905170 -12.072657 -6.278294 
-7.946936 -11.750719 -6.278294 
14.850554 -11.750719 -6.278294 
-7.917799 -11.428782 -6.278294 
14.800909 -11.428782 -6.278294 
-7.901382 -11.106844 -6.474325 
-7.901382 -11.278541 -6.278294 
-7.882587 -11.106844 -6.278294 
14.743214 -11.106844 -6.278294 
-7.853252 -10.784906 -6.278294 
14.694333 -10.784906 -6.278294 
-7.833899 -10.462969 -6.278294 
14.673995 -10.482802 -6.278294 
14.672669 -10.462969 -6.278294 
-7.817020 -10.141031 -6.278294 
14.662286 -10.141031 -6.278294 
-7.793118 -9.819094 -6.278294 
14.644820 -9.819094 -6.278294 
-7.745616 -9.497156 -6.278294 
14.608978 -9.497156 -6.278294 
-7.674562 -9.175219 -6.278294 
14.555543 -9.175219 -6.278294 
-7.603814 -8.853281 -6.278294 
14.499369 -8.853281 -6.278294 
-7.578876 -8.734769 -6.278294 
-7.535468 -8.531343 -6.278294 
14.438140 -8.531343 -6.278294 
-7.458582 -8.209406 -6.278294 
14.403613 -8.209406 -6.278294 
-7.375389 -7.887469 -6.278294 
14.416662 -7.887469 -6.278294 
-7.307997 -7.565531 -6.278294 
14.482089 -7.565531 -6.278294 
-7.265527 -7.243594 -6.278294 
14.544644 -7.243594 -6.278294 
-7.256371 -7.140205 -6.278294 
-7.237249 -6.921656 -6.278294 
14.523158 -6.921656 -6.278294 
-7.217625 -6.599719 -6.278294 
14.472188 -6.599719 -6.278294 
-7.195584 -6.277781 -6.278294 
14.415010 -6.277781 -6.278294 
-7.175823 -5.955844 -6.278294 
14.351489 -5.955844 -6.298429 
14.353634 -5.955844 -6.278294 
-7.152326 -5.633906 -6.278294 
14.351489 -5.941549 -6.278294 
14.305198 -5.633906 -6.278294 
-7.121742 -5.311969 -6.278294 
14.263481 -5.311969 -6.278294 
-7.089623 -4.990031 -6.278294 
14.222251 -4.990031 -6.278294 
-7.060598 -4.668094 -6.278294 
14.204087 -4.668094 -6.278294 
-7.030667 -4.346156 -6.278294 
14.212733 -4.346156 -6.278294 
-6.996381 -4.024219 -6.278294 
14.227929 -4.024219 -6.278294 
-6.956208 -3.702281 -6.278294 
14.234858 -3.702281 -6.278294 
-6.933866 -3.552696 -6.278294 
-6.908043 -3.380344 -6.278294 
14.212777 -3.380344 -6.278294 
-6.856672 -3.058406 -6.278294 
14.164409 -3.058406 -6.278294 
-6.805606 -2.736469 -6.278294 
14.114765 -2.736469 -6.278294 
-6.754068 -2.414531 -6.278294 
14.066814 -2.414531 -6.278294 
-6.705976 -2.092594 -6.278294 
14.028984 -2.206789 -6.278294 
14.007709 -2.092594 -6.278294 
-6.659194 -1.770656 -6.278294 
13.938186 -1.770656 -6.278294 
-6.623057 -1.448719 -6.278294 
13.857627 -1.448719 -6.278294 
-6.611360 -1.126781 -6.517350 
-6.611360 -1.325858 -6.278294 
-6.592318 -1.126781 -6.278294 
13.779995 -1.126781 -6.278294 
-6.566828 -0.804844 -6.278294 
13.736520 -0.804844 -6.278294 
-6.536833 -0.482906 -6.278294 
13.709937 -0.482906 -6.278294 
-6.501988 -0.160969 -6.278294 
13.706479 -0.438330 -6.278294 
13.706479 -0.160969 -6.445419 
13.684846 -0.160969 -6.278294 
-6.459049 0.160969 -6.278294 
13.663528 0.160969 -6.278294 
-6.410167 0.482906 -6.278294 
13.644855 0.482906 -6.278294 
-6.358825 0.804844 -6.278294 
13.623586 0.804844 -6.278294 
-6.307093 1.126781 -6.278294 
13.602751 1.126781 -6.278294 
-6.288855 1.278142 -6.278294 
-6.268503 1.448719 -6.278294 
13.587990 1.448719 -6.278294 
-6.241249 1.770656 -6.278294 
13.577783 1.770656 -6.278294 
-6.214878 2.092594 -6.278294 
13.566494 2.092594 -6.278294 
-6.179287 2.414531 -6.278294 
13.544598 2.414531 -6.278294 
-6.114080 2.736469 -6.278294 
13.508896 2.736469 -6.278294 
-6.039277 3.058406 -6.278294 
13.470060 3.058406 -6.278294 
-5.967993 3.380344 -6.278294 
-5.966350 3.380344 -6.313975 
13.431011 3.380344 -6.278294 
-5.966350 3.390480 -6.278294 
-5.916475 3.702281 -6.278294 
13.396998 3.702281 -6.278294 
-5.892464 4.024219 -6.278294 
13.383973 3.890546 -6.278294 
13.374824 4.024219 -6.278294 
-5.880352 4.346156 -6.278294 
13.353939 4.346156 -6.278294 
-5.865481 4.668094 -6.278294 
13.339650 4.668094 -6.278294 
-5.826770 4.990031 -6.278294 
13.358404 4.990031 -6.278294 
-5.774068 5.311969 -6.278294 
13.383973 5.311969 -6.421030 
13.383973 5.195871 -6.278294 
13.398437 5.311969 -6.278294 
-5.720528 5.633906 -6.278294 
13.431849 5.633906 -6.278294 
-5.667968 5.955844 -6.278294 
13.457785 5.955844 -6.278294 
-5.643844 6.133316 -6.278294 
-5.624323 6.277781 -6.278294 
13.480615 6.277781 -6.278294 
-5.587005 6.599719 -6.278294 
13.502106 6.599719 -6.278294 
-5.548563 6.921656 -6.278294 
13.525978 6.921656 -6.278294 
-5.515121 7.243594 -6.278294 
13.544156 7.243594 -6.278294 
-5.492144 7.565531 -6.278294 
13.545096 7.565531 -6.278294 
-5.467924 7.887469 -6.278294 
13.672085 7.887469 -6.278294 
-5.445852 8.209406 -6.278294 
13.706479 7.922916 -6.278294 
14.028984 8.209406 -6.523778 
14.028984 8.020332 -6.278294 
14.351489 8.209406 -6.346327 
14.351489 8.148083 -6.278294 
14.444536 8.209406 -6.278294 
-5.516758 8.531343 -6.278294 
14.673995 8.531343 -6.386869 
14.673995 8.405530 -6.278294 
14.785212 8.531343 -6.278294 
-6.611360 8.801404 -6.278294 
-6.796299 8.853281 -6.278294 
-6.611360 8.853281 -6.508004 
-6.288855 8.778324 -6.278294 
-5.966350 8.781618 -6.278294 
-5.643844 8.672323 -6.278294 
14.989297 8.853281 -6.278294 
-7.256371 9.061495 -6.278294 
-7.434755 9.175219 -6.278294 
-7.256371 9.175219 -6.522009 
-6.933866 8.895991 -6.278294 
14.996500 9.175219 -6.440345 
14.996500 8.867171 -6.278294 
15.163699 9.175219 -6.278294 
-7.578876 9.274930 -6.278294 
-7.874327 9.497156 -6.278294 
15.309245 9.497156 -6.278294 
-7.901382 9.520767 -6.278294 
-8.200324 9.819094 -6.278294 
15.313301 9.819094 -6.278294 
-8.223887 9.847680 -6.278294 
-8.426661 10.141031 -6.278294 
-8.223887 10.141031 -6.592615 
15.295873 10.141031 -6.278294 
-8.546392 10.404157 -6.278294 
-8.573391 10.462969 -6.278294 
-8.546392 10.462969 -6.320264 
15.254230 10.462969 -6.278294 
-8.740993 10.784906 -6.278294 
-8.546392 10.784906 -6.591465 
15.205960 10.784906 -6.278294 
-8.831839 11.106844 -6.278294 
14.996500 11.106844 -6.570269 
15.138051 11.106844 -6.278294 
-8.868898 11.396789 -6.278294 
-8.872679 11.428782 -6.278294 
-8.868898 11.428782 -6.284402 
14.996500 11.428782 -6.426759 
15.063029 11.428782 -6.278294 
-8.868898 11.473857 -6.278294 
-8.845142 11.750719 -6.278294 
14.996500 11.617311 -6.278294 
14.948336 11.750719 -6.278294 
-8.816980 12.072657 -6.278294 
14.814363 12.072657 -6.278294 
-8.760811 12.394594 -6.278294 
14.673995 12.327601 -6.278294 
14.635897 12.394594 -6.278294 
-8.659346 12.716531 -6.278294 
-8.546392 12.716531 -6.468016 
14.351489 12.716531 -6.513723 
14.432701 12.716531 -6.278294 
-8.546392 12.926609 -6.278294 
-8.476741 13.038468 -6.278294 
14.351489 12.831108 -6.278294 
14.198899 13.038468 -6.278294 
-8.223887 13.349587 -6.278294 
-8.214166 13.360406 -6.278294 
14.028984 13.247502 -6.278294 
13.935323 13.360406 -6.278294 
-7.901382 13.662188 -6.278294 
-7.877139 13.682343 -6.278294 
13.706479 13.626719 -6.278294 
13.655215 13.682343 -6.278294 
-7.578876 13.891623 -6.278294 
-7.397039 14.004281 -6.278294 
-7.256371 14.004281 -6.496392 
13.383973 13.936628 -6.278294 
13.300058 14.004281 -6.278294 
-7.256371 14.083652 -6.278294 
-6.933866 14.229084 -6.278294 
-6.640314 14.326219 -6.278294 
-6.611360 14.326219 -6.312681 
13.061468 14.208489 -6.278294 
12.961238 14.326219 -6.278294 
-6.611360 14.335463 -6.278294 
-6.288855 14.406923 -6.278294 
-5.966350 14.441029 -6.278294 
-5.643844 14.442532 -6.278294 
-5.321339 14.431987 -6.278294 
-4.998833 14.439208 -6.278294 
-4.676328 14.530284 -6.278294 
-4.498964 14.648156 -6.278294 
12.780602 14.648156 -6.278294 
-4.353823 14.773641 -6.278294 
-4.166131 14.970094 -6.278294 
12.738962 14.718374 -6.278294 
12.576212 14.970094 -6.278294 
-4.031317 15.111140 -6.278294 
-3.838297 15.292031 -6.278294 
12.416457 15.148325 -6.278294 
12.258356 15.292031 -6.278294 
-3.708812 15.399644 -6.278294 
-3.428007 15.613969 -6.278294 
12.093952 15.428750 -6.278294 
11.857006 15.613969 -6.278294 
-3.386307 15.645032 -6.278294 
-3.063801 15.935906 -6.530122 
-3.063801 15.877443 -6.278294 
-2.977577 15.935906 -6.278294 
11.448941 15.898918 -6.278294 
11.389214 15.935906 -6.278294 
11.771446 15.678400 -6.278294 
-2.741296 16.092365 -6.278294 
-2.492696 16.257843 -6.278294 
11.126435 16.093840 -6.278294 
10.877492 16.257843 -6.278294 
-2.418790 16.307945 -6.278294 
-2.096285 16.579781 -6.476016 
-2.096285 16.547165 -6.278294 
-2.056106 16.579781 -6.278294 
10.481425 16.577728 -6.278294 
10.479233 16.579781 -6.278294 
10.803930 16.309893 -6.278294 
-1.773780 16.821270 -6.278294 
-1.690402 16.901718 -6.278294 
10.170697 16.901718 -6.278294 
-1.451274 17.170336 -6.278294 
-1.410057 17.223656 -6.278294 
10.158919 16.915737 -6.278294 
9.925771 17.223656 -6.278294 
-1.204282 17.545593 -6.278294 
9.836414 17.377455 -6.278294 
9.747790 17.545593 -6.278294 
-1.128769 17.669638 -6.278294 
-1.003828 17.867531 -6.278294 
9.604082 17.867531 -6.278294 
-0.806263 18.168413 -6.278294 
-0.793720 18.189468 -6.278294 
9.579255 18.189468 -6.278294 
-0.665725 18.511406 -6.278294 
9.578726 18.511406 -6.278294 
-0.685317 18.833344 -6.278294 
9.590535 18.833344 -6.278294 
-0.728758 19.155281 -6.278294 
9.602354 19.155281 -6.278294 
-0.798951 19.477219 -6.278294 
9.660883 19.477219 -6.278294 
-0.806263 19.515711 -6.278294 
-0.863135 19.799156 -6.278294 
9.723474 19.799156 -6.278294 
-1.010427 20.121094 -6.278294 
9.809071 20.121094 -6.278294 
-1.128769 20.330976 -6.278294 
-1.196321 20.443031 -6.278294 
-1.128769 20.443031 -6.468430 
9.836414 20.443031 -6.597236 
9.836414 20.203016 -6.278294 
9.918936 20.443031 -6.278294 
-1.408450 20.764969 -6.278294 
10.071528 20.764969 -6.278294 
-1.451274 20.827162 -6.278294 
-1.633890 21.086906 -6.278294 
10.158919 21.086906 -6.519132 
10.158919 20.953749 -6.278294 
10.221612 21.086906 -6.278294 
-1.773780 21.278675 -6.278294 
-1.864133 21.408844 -6.278294 
10.378398 21.408844 -6.278294 
-2.052160 21.730782 -6.278294 
10.481425 21.602890 -6.278294 
10.549193 21.730782 -6.278294 
-2.096285 21.824278 -6.278294 
-2.198165 22.052719 -6.278294 
10.716800 22.052719 -6.278294 
-2.332660 22.374657 -6.278294 
10.803930 22.221888 -6.278294 
10.881462 22.374657 -6.278294 
-2.418790 22.603081 -6.278294 
-2.453311 22.696594 -6.278294 
-2.418790 22.696594 -6.411198 
11.039685 22.696594 -6.278294 
-2.545884 23.018532 -6.278294 
11.126435 23.018532 -6.599833 
11.126435 22.901819 -6.278294 
11.174406 23.018532 -6.278294 
-2.629687 23.340469 -6.278294 
11.293559 23.340469 -6.278294 
-2.717099 23.662407 -6.278294 
11.412633 23.662407 -6.278294 
-2.741296 23.801470 -6.278294 
-2.772205 23.984344 -6.278294 
-2.741296 23.984344 -6.428824 
11.448941 23.782795 -6.278294 
11.508186 23.984344 -6.278294 
-2.783662 24.306282 -6.278294 
-2.741296 24.306282 -6.499266 
11.569589 24.306282 -6.278294 
-2.791778 24.628220 -6.278294 
-2.741296 24.628220 -6.553692 
11.626976 24.628220 -6.278294 
-2.812215 24.950157 -6.278294 
11.691010 24.950157 -6.278294 
-2.819693 25.272093 -6.278294 
11.736737 25.272093 -6.278294 
-2.805665 25.594030 -6.278294 
11.759218 25.594030 -6.278294 
-2.786859 25.915968 -6.278294 
-2.741296 25.915968 -6.525915 
11.771446 25.915968 -6.395108 
11.771446 25.769445 -6.278294 
11.781572 25.915968 -6.278294 
-2.762627 26.237906 -6.278294 
-2.741296 26.237906 -6.394502 
11.771446 26.237906 -6.550711 
11.796822 26.237906 -6.278294 
-2.741296 26.405325 -6.278294 
-2.721341 26.559843 -6.278294 
11.771446 26.559843 -6.337654 
11.776875 26.559843 -6.278294 
-2.670392 26.881781 -6.278294 
11.771446 26.600380 -6.278294 
11.733148 26.881781 -6.278294 
-2.623335 27.203718 -6.278294 
11.688180 27.203718 -6.278294 
-2.568293 27.525656 -6.278294 
11.628553 27.525656 -6.278294 
-2.492989 27.847593 -6.278294 
11.557510 27.847593 -6.278294 
-2.418790 28.121359 -6.278294 
-2.405322 28.169531 -6.278294 
11.486927 28.169531 -6.278294 
-2.304957 28.491468 -6.278294 
11.448941 28.316679 -6.278294 
11.403045 28.491468 -6.278294 
-2.185472 28.813406 -6.278294 
11.310002 28.813406 -6.278294 
-2.096285 29.050455 -6.278294 
-2.064926 29.135344 -6.278294 
11.201087 29.135344 -6.278294 
-1.956279 29.457281 -6.278294 
11.126435 29.358053 -6.278294 
11.092502 29.457281 -6.278294 
-1.851624 29.779219 -6.278294 
10.981323 29.779219 -6.278294 
-1.773780 29.998663 -6.278294 
-1.736855 30.101156 -6.278294 
10.847521 30.101156 -6.278294 
-1.614066 30.423094 -6.278294 
10.803930 30.195152 -6.278294 
10.692837 30.423094 -6.278294 
-1.511828 30.745031 -6.278294 
-1.451274 30.745031 -6.523407 
10.481425 30.745031 -6.392488 
10.506602 30.745031 -6.278294 
-1.451274 30.945478 -6.278294 
-1.416560 31.066969 -6.278294 
10.481425 30.783337 -6.278294 
10.284642 31.066969 -6.278294 
-1.451274 31.288250 -6.278294 
-1.468341 31.388906 -6.278294 
-1.451274 31.388906 -6.340531 
10.158919 31.246691 -6.278294 
10.058644 31.388906 -6.278294 
-1.584412 31.710844 -6.278294 
9.836414 31.710844 -6.292097 
9.843233 31.710844 -6.278294 
-1.719658 32.032780 -6.278294 
9.513908 32.032780 -6.444661 
9.836414 31.722616 -6.278294 
9.631943 32.032780 -6.278294 
-1.773780 32.193039 -6.278294 
-1.826145 32.354717 -6.278294 
-1.773780 32.354717 -6.442107 
9.191403 32.354717 -6.481478 
9.513908 32.191452 -6.278294 
9.371452 32.354717 -6.278294 
-1.921779 32.676655 -6.278294 
8.868898 32.676655 -6.441071 
9.191403 32.556995 -6.278294 
9.058703 32.676655 -6.278294 
-2.012433 32.998592 -6.278294 
8.223887 32.998592 -6.550619 
8.546392 32.998592 -6.302187 
8.868898 32.834892 -6.278294 
8.586246 32.998592 -6.278294 
-2.096285 33.294235 -6.278294 
-2.103553 33.320530 -6.278294 
-2.096285 33.320530 -6.308261 
7.578876 33.320530 -6.476425 
7.771751 33.320530 -6.278294 
7.901382 33.266994 -6.278294 
8.223887 33.152576 -6.278294 
8.546392 33.019947 -6.278294 
-2.184142 33.642467 -6.278294 
6.611360 33.642467 -6.417193 
6.772596 33.642467 -6.278294 
6.933866 33.605408 -6.278294 
7.256371 33.512482 -6.278294 
7.578876 33.399529 -6.278294 
-2.250930 33.964405 -6.278294 
2.096285 33.964405 -6.597743 
2.418790 33.964405 -6.398180 
2.741296 33.964405 -6.308386 
3.063801 33.964405 -6.279924 
3.106117 33.964405 -6.278294 
3.386307 33.962204 -6.278294 
3.708812 33.955547 -6.278294 
4.031317 33.940777 -6.278294 
4.353823 33.920723 -6.278294 
4.676328 33.896904 -6.278294 
4.998833 33.869682 -6.278294 
5.321339 33.841232 -6.278294 
5.643844 33.811024 -6.278294 
5.966350 33.778038 -6.278294 
6.288855 33.737164 -6.278294 
6.611360 33.678513 -6.278294 
-2.330065 34.286343 -6.278294 
2.096285 34.135525 -6.278294 
1.928217 34.286343 -6.278294 
2.418790 34.011353 -6.278294 
2.741296 33.973068 -6.278294 
3.063801 33.964737 -6.278294 
-2.418295 34.608280 -6.278294 
1.773780 34.493820 -6.278294 
1.704086 34.608280 -6.278294 
-2.418790 34.610302 -6.278294 
-2.486980 34.930218 -6.278294 
1.516751 34.930218 -6.278294 
-2.546425 35.252155 -6.278294 
1.451274 35.035053 -6.278294 
1.310653 35.252155 -6.278294 
-2.561614 35.574093 -6.278294 
1.128769 35.520111 -6.278294 
1.090695 35.574093 -6.278294 
-2.537616 35.896030 -6.278294 
0.806263 35.896030 -6.448271 
0.848151 35.896030 -6.278294 
-2.486908 36.217968 -6.278294 
-2.418790 36.217968 -6.443885 
0.483758 36.217968 -6.511396 
0.806263 35.947491 -6.278294 
0.563898 36.217968 -6.278294 
-2.418790 36.431965 -6.278294 
-2.375463 36.539906 -6.278294 
0.161253 36.539906 -6.330196 
0.483758 36.296120 -6.278294 
0.186375 36.539906 -6.278294 
-2.143111 36.861843 -6.278294 
-2.096285 36.861843 -6.328837 
-1.773780 36.861843 -6.561252 
-0.483758 36.861843 -6.561029 
-0.278799 36.861843 -6.278294 
-0.161253 36.789391 -6.278294 
0.161253 36.559387 -6.278294 
-2.096285 36.905922 -6.278294 
-1.773780 37.090565 -6.278294 
-1.451274 37.178928 -6.278294 
-1.128769 37.180992 -6.278294 
-0.806263 37.108967 -6.278294 
-0.483758 36.977432 -6.278294 
-11.771446 -37.192719 -5.956330 
-11.864317 -37.183781 -5.956330 
-11.448941 -37.192535 -5.956330 
-11.324185 -37.183781 -5.956330 
15.641511 -37.218952 -5.956330 
15.371743 -37.183781 -5.956330 
15.964016 -37.261753 -5.956330 
16.286522 -37.303116 -5.956330 
16.609028 -37.341312 -5.956330 
16.931532 -37.369377 -5.956330 
17.254038 -37.371273 -5.956330 
17.576544 -37.330639 -5.956330 
17.899048 -37.254799 -5.956330 
18.032280 -37.183781 -5.956330 
-12.416457 -37.059597 -5.956330 
-12.585529 -36.861843 -5.956330 
-12.093952 -37.161911 -5.956330 
-11.126435 -37.169891 -5.956330 
-10.803930 -37.143780 -5.956330 
-10.481425 -37.122944 -5.956330 
-10.158919 -37.104027 -5.956330 
-9.836414 -37.088127 -5.956330 
-9.513908 -37.076672 -5.956330 
-9.191403 -37.070553 -5.956330 
-8.868898 -37.069172 -5.956330 
-8.546392 -37.068909 -5.956330 
-8.223887 -37.066238 -5.956330 
-7.901382 -37.062172 -5.956330 
-7.578876 -37.056755 -5.956330 
-7.256371 -37.050373 -5.956330 
-6.933866 -37.043407 -5.956330 
-6.611360 -37.036160 -5.956330 
-6.288855 -37.029194 -5.956330 
-5.966350 -37.023682 -5.956330 
-5.643844 -37.020008 -5.956330 
-5.321339 -37.018223 -5.956330 
-4.998833 -37.018196 -5.956330 
-4.676328 -37.019577 -5.956330 
-4.353823 -37.022209 -5.956330 
-4.031317 -37.026241 -5.956330 
-3.708812 -37.030384 -5.956330 
-3.386307 -37.033646 -5.956330 
-3.063801 -37.035767 -5.956330 
-2.741296 -37.036537 -5.956330 
-2.418790 -37.035572 -5.956330 
-2.096285 -37.032379 -5.956330 
-1.773780 -37.026730 -5.956330 
-1.451274 -37.018257 -5.956330 
-1.128769 -37.008137 -5.956330 
-0.806263 -36.994537 -5.956330 
-0.483758 -36.972031 -5.956330 
-0.161253 -36.927975 -5.956330 
0.121266 -36.861843 -5.956330 
0.161253 -36.861843 -6.015538 
5.966350 -36.883572 -5.956330 
5.882459 -36.861843 -5.956330 
5.966350 -36.861843 -6.232380 
6.288855 -36.924839 -5.956330 
6.611360 -36.961044 -5.956330 
6.933866 -36.989765 -5.956330 
7.256371 -37.013195 -5.956330 
7.578876 -37.029896 -5.956330 
7.901382 -37.040512 -5.956330 
8.223887 -37.046425 -5.956330 
8.546392 -37.047729 -5.956330 
8.868898 -37.045567 -5.956330 
9.191403 -37.042324 -5.956330 
9.513908 -37.040218 -5.956330 
9.836414 -37.038345 -5.956330 
10.158919 -37.036961 -5.956330 
10.481425 -37.036839 -5.956330 
10.803930 -37.038345 -5.956330 
11.126435 -37.041634 -5.956330 
11.448941 -37.046665 -5.956330 
11.771446 -37.052990 -5.956330 
12.093952 -37.060017 -5.956330 
12.416457 -37.066277 -5.956330 
12.738962 -37.071301 -5.956330 
13.061468 -37.076065 -5.956330 
13.383973 -37.080887 -5.956330 
13.706479 -37.085983 -5.956330 
14.028984 -37.092426 -5.956330 
14.351489 -37.102371 -5.956330 
14.673995 -37.116974 -5.956330 
14.996500 -37.141239 -5.956330 
15.319006 -37.176971 -5.956330 
18.221554 -36.981670 -5.956330 
18.280737 -36.861843 -5.956330 
-12.615091 -36.539906 -5.956330 
0.161253 -36.851921 -5.956330 
0.483758 -36.723763 -5.956330 
0.795680 -36.539906 -5.956330 
0.806263 -36.539906 -5.975498 
5.321339 -36.656940 -5.956330 
5.123276 -36.539906 -5.956330 
5.643844 -36.794003 -5.956330 
18.295605 -36.539906 -5.956330 
-12.596417 -36.217968 -5.956330 
0.806263 -36.531998 -5.956330 
1.128769 -36.233498 -5.956330 
1.143155 -36.217968 -5.956330 
4.998833 -36.439045 -5.956330 
4.791414 -36.217968 -5.956330 
18.266039 -36.217968 -5.956330 
-12.570012 -35.896030 -5.956330 
1.451274 -35.896030 -6.100214 
1.388842 -35.896030 -5.956330 
4.676328 -36.069717 -5.956330 
4.571414 -35.896030 -5.956330 
4.676328 -35.896030 -6.200600 
18.241102 -35.896030 -5.956330 
-12.513577 -35.574093 -5.956330 
1.451274 -35.747932 -5.956330 
1.515586 -35.574093 -5.956330 
4.475783 -35.574093 -5.956330 
18.221554 -35.582424 -5.956330 
18.221554 -35.574093 -5.962180 
18.221037 -35.574093 -5.956330 
-12.446955 -35.252155 -5.956330 
-12.416457 -35.252155 -6.158380 
1.604544 -35.252155 -5.956330 
4.392210 -35.252155 -5.956330 
18.189255 -35.252155 -5.956330 
-12.416457 -35.088215 -5.956330 
-12.386765 -34.930218 -5.956330 
1.642797 -34.930218 -5.956330 
4.390913 -34.930218 -5.956330 
18.157747 -34.930218 -5.956330 
-12.315597 -34.608280 -5.956330 
1.673406 -34.608280 -5.956330 
4.395352 -34.608280 -5.956330 
18.134140 -34.608280 -5.956330 
-12.212469 -34.286343 -5.956330 
1.692464 -34.286343 -5.956330 
4.415917 -34.286343 -5.956330 
18.117279 -34.286343 -5.956330 
-12.093952 -33.970936 -5.956330 
-12.091402 -33.964405 -5.956330 
1.773780 -33.964405 -6.264454 
1.714043 -33.964405 -5.956330 
4.430097 -33.964405 -5.956330 
18.099989 -33.964405 -5.956330 
-11.960478 -33.642467 -5.956330 
1.773780 -33.642467 -6.151637 
1.735506 -33.642467 -5.956330 
4.446053 -33.642467 -5.956330 
18.074099 -33.642467 -5.956330 
-11.823494 -33.320530 -5.956330 
-11.771446 -33.320530 -6.240359 
1.773780 -33.320530 -6.078679 
1.750226 -33.320530 -5.956330 
4.433227 -33.320530 -5.956330 
18.015911 -33.320530 -5.956330 
-11.771446 -33.191849 -5.956330 
-11.694128 -32.998592 -5.956330 
1.773780 -32.998592 -6.050251 
1.756703 -32.998592 -5.956330 
4.398909 -32.998592 -5.956330 
17.936064 -32.998592 -5.956330 
-11.570356 -32.676655 -5.956330 
1.773780 -32.676655 -6.036200 
1.760365 -32.676655 -5.956330 
4.357789 -32.676655 -5.956330 
17.899048 -32.842857 -5.956330 
17.859905 -32.676655 -5.956330 
-11.451679 -32.354717 -5.956330 
-11.448941 -32.354717 -6.036523 
1.773780 -32.354717 -6.014215 
1.764663 -32.354717 -5.956330 
4.353823 -32.648170 -5.956330 
4.312799 -32.354717 -5.956330 
4.353823 -32.354717 -6.225882 
17.797096 -32.354717 -5.956330 
-11.448941 -32.342731 -5.956330 
-11.381536 -32.032780 -5.956330 
1.773780 -32.111290 -5.956330 
1.776558 -32.032780 -5.956330 
4.273143 -32.032780 -5.956330 
17.746374 -32.032780 -5.956330 
-11.335417 -31.710844 -5.956330 
1.790155 -31.710844 -5.956330 
4.244336 -31.710844 -5.956330 
17.690474 -31.710844 -5.956330 
-11.296185 -31.388906 -5.956330 
1.804418 -31.388906 -5.956330 
4.243236 -31.388906 -5.956330 
17.625511 -31.388906 -5.956330 
-11.254477 -31.066969 -5.956330 
1.822801 -31.066969 -5.956330 
4.262366 -31.066969 -5.956330 
17.576544 -31.151928 -5.956330 
17.558958 -31.066969 -5.956330 
-11.200682 -30.745031 -5.956330 
1.851400 -30.745031 -5.956330 
4.290858 -30.745031 -5.956330 
17.499746 -30.745031 -5.956330 
-11.135535 -30.423094 -5.956330 
-11.126435 -30.423094 -6.276082 
1.880003 -30.423094 -5.956330 
4.318147 -30.423094 -5.956330 
17.444126 -30.423094 -5.956330 
-11.126435 -30.378336 -5.956330 
-11.070221 -30.101156 -5.956330 
1.911850 -30.101156 -5.956330 
4.344882 -30.101156 -5.956330 
17.389576 -30.101156 -5.956330 
-11.011191 -29.779219 -5.956330 
1.942423 -29.779219 -5.956330 
4.353823 -29.874111 -5.956330 
4.357543 -29.779219 -5.956330 
17.336426 -29.779219 -5.956330 
-10.955588 -29.457281 -5.956330 
1.976200 -29.457281 -5.956330 
4.353823 -29.736280 -5.956330 
4.329229 -29.457281 -5.956330 
17.278933 -29.457281 -5.956330 
-10.892755 -29.135344 -5.956330 
2.096285 -29.135344 -6.214481 
2.008670 -29.135344 -5.956330 
4.271694 -29.135344 -5.956330 
17.254038 -29.334015 -5.956330 
17.213839 -29.135344 -5.956330 
-10.819868 -28.813406 -5.956330 
2.096285 -28.813406 -6.114486 
2.037841 -28.813406 -5.956330 
4.191990 -28.813406 -5.956330 
17.149399 -28.813406 -5.956330 
-10.803930 -28.747953 -5.956330 
-10.741078 -28.491468 -5.956330 
2.096285 -28.491468 -6.054400 
2.058913 -28.491468 -5.956330 
4.087798 -28.491468 -5.956330 
17.103035 -28.491468 -5.956330 
-10.672117 -28.169531 -5.956330 
2.096285 -28.169531 -5.996407 
2.082367 -28.169531 -5.956330 
4.031317 -28.288988 -5.956330 
3.999193 -28.169531 -5.956330 
4.031317 -28.169531 -6.079488 
17.076704 -28.169531 -5.956330 
-10.612605 -27.847593 -5.956330 
2.096285 -27.956430 -5.956330 
2.103097 -27.847593 -5.956330 
3.975125 -27.847593 -5.956330 
4.031317 -27.847593 -6.215434 
17.055508 -27.847593 -5.956330 
-10.568965 -27.525656 -5.956330 
2.113656 -27.525656 -5.956330 
3.975165 -27.525656 -5.956330 
17.026846 -27.525656 -5.956330 
-10.546525 -27.203718 -5.956330 
2.147837 -27.203718 -5.956330 
3.981775 -27.203718 -5.956330 
16.975153 -27.203718 -5.956330 
-10.524530 -26.881781 -5.956330 
2.197255 -26.881781 -5.956330 
3.982286 -26.881781 -5.956330 
16.931532 -26.993946 -5.956330 
16.907785 -26.881781 -5.956330 
-10.495783 -26.559843 -5.956330 
2.274070 -26.559843 -5.956330 
3.960567 -26.559843 -5.956330 
16.835991 -26.559843 -5.956330 
-10.481425 -26.237906 -6.137362 
-10.481425 -26.433550 -5.956330 
-10.458886 -26.237906 -5.956330 
2.359252 -26.237906 -5.956330 
3.930954 -26.237906 -5.956330 
16.767153 -26.237906 -5.956330 
-10.423526 -25.915968 -5.956330 
2.418790 -26.035065 -5.956330 
2.452744 -25.915968 -5.956330 
3.900634 -25.915968 -5.956330 
16.711578 -25.915968 -5.956330 
-10.377497 -25.594030 -5.956330 
2.538506 -25.594030 -5.956330 
3.874107 -25.594030 -5.956330 
16.661005 -25.594030 -5.956330 
-10.309420 -25.272093 -5.956330 
2.617511 -25.272093 -5.956330 
3.848904 -25.272093 -5.956330 
16.609028 -25.282446 -5.956330 
16.609028 -25.272093 -6.246495 
16.607302 -25.272093 -5.956330 
-10.236816 -24.950157 -5.956330 
2.741296 -24.950157 -6.200054 
2.713149 -24.950157 -5.956330 
3.794031 -24.950157 -5.956330 
16.562178 -24.950157 -5.956330 
-10.171165 -24.628220 -5.956330 
2.741296 -24.875546 -5.956330 
2.842897 -24.628220 -5.956330 
3.708812 -24.654541 -5.956330 
3.700244 -24.628220 -5.956330 
16.529831 -24.628220 -5.956330 
-10.158919 -24.306282 -6.214674 
-10.158919 -24.563005 -5.956330 
-10.110355 -24.306282 -5.956330 
3.063801 -24.337915 -5.956330 
3.198786 -24.306282 -5.956330 
3.386307 -24.306282 -6.094323 
3.432953 -24.306282 -5.956330 
16.498882 -24.306282 -5.956330 
-10.064428 -23.984344 -5.956330 
3.386307 -24.270893 -5.956330 
16.463440 -23.984344 -5.956330 
-10.054832 -23.662407 -5.956330 
16.416908 -23.662407 -5.956330 
-10.041934 -23.340469 -5.956330 
16.374733 -23.340469 -5.956330 
-9.981430 -23.018532 -5.956330 
16.345861 -23.018532 -5.956330 
-9.907905 -22.696594 -5.956330 
16.304333 -22.696594 -5.956330 
-9.836414 -22.374657 -5.978349 
-9.836414 -22.399475 -5.956330 
-9.830508 -22.374657 -5.956330 
16.286522 -22.600660 -5.956330 
16.243376 -22.374657 -5.956330 
-9.836414 -22.052719 -6.265056 
-9.761857 -22.052719 -5.956330 
16.182131 -22.052719 -5.956330 
-9.699643 -21.730782 -5.956330 
16.121670 -21.730782 -5.956330 
-9.624250 -21.408844 -5.956330 
16.069130 -21.408844 -5.956330 
-9.531959 -21.086906 -5.956330 
16.026516 -21.086906 -5.956330 
-9.513908 -21.025284 -5.956330 
-9.437173 -20.764969 -5.956330 
15.984785 -20.764969 -5.956330 
-9.339515 -20.443031 -5.956330 
15.964016 -20.606344 -5.956330 
15.942455 -20.443031 -5.956330 
-9.257360 -20.121094 -5.956330 
15.902529 -20.121094 -5.956330 
-9.195457 -19.799156 -5.956330 
15.861981 -19.799156 -5.956330 
-9.191403 -19.776590 -5.956330 
-9.138184 -19.477219 -5.956330 
15.818858 -19.477219 -5.956330 
-9.081365 -19.155281 -5.956330 
15.776480 -19.155281 -5.956330 
-9.026194 -18.833344 -5.956330 
15.737379 -18.833344 -5.956330 
-8.969421 -18.511406 -5.956330 
15.699766 -18.511406 -5.956330 
-8.910743 -18.189468 -5.956330 
15.661641 -18.189468 -5.956330 
-8.868898 -17.867531 -6.007090 
-8.868898 -17.916412 -5.956330 
-8.861509 -17.867531 -5.956330 
15.641511 -18.027298 -5.956330 
15.621390 -17.867531 -5.956330 
-8.825562 -17.545593 -5.956330 
15.575737 -17.545593 -5.956330 
-8.789761 -17.223656 -5.956330 
15.525255 -17.223656 -5.956330 
-8.755605 -16.901718 -5.956330 
15.474180 -16.901718 -5.956330 
-8.724397 -16.579781 -5.956330 
15.435701 -16.579781 -5.956330 
-8.684170 -16.257843 -5.956330 
15.410661 -16.257843 -5.956330 
-8.637714 -15.935906 -5.956330 
15.378434 -15.935906 -5.956330 
-8.594198 -15.613969 -5.956330 
15.340019 -15.613969 -5.956330 
-8.546392 -15.292031 -6.036054 
-8.546392 -15.360891 -5.956330 
-8.532902 -15.292031 -5.956330 
15.319006 -15.311127 -5.956330 
15.319006 -15.292031 -6.031709 
15.317694 -15.292031 -5.956330 
-8.440999 -14.970094 -5.956330 
15.319006 -14.970094 -6.008679 
15.315876 -14.970094 -5.956330 
-8.360613 -14.648156 -5.956330 
15.319006 -14.801731 -5.956330 
15.321855 -14.648156 -5.956330 
-8.295436 -14.326219 -5.956330 
15.319006 -14.493596 -5.956330 
15.319006 -14.326219 -5.982683 
15.315899 -14.326219 -5.956330 
-8.267900 -14.004281 -5.956330 
15.319006 -14.004281 -6.252686 
15.279696 -14.004281 -5.956330 
-8.228270 -13.682343 -5.956330 
15.230100 -13.682343 -5.956330 
-8.223887 -13.668676 -5.956330 
-8.121538 -13.360406 -5.956330 
15.175414 -13.360406 -5.956330 
-8.031040 -13.038468 -5.956330 
15.101749 -13.038468 -5.956330 
-7.989247 -12.716531 -5.956330 
15.021057 -12.716531 -5.956330 
-7.962616 -12.394594 -5.956330 
14.996500 -12.606961 -5.956330 
14.949403 -12.394594 -5.956330 
-7.940739 -12.072657 -5.956330 
14.888555 -12.072657 -5.956330 
-7.916877 -11.750719 -5.956330 
14.839557 -11.750719 -5.956330 
-7.901382 -11.428782 -6.125417 
-7.901382 -11.602039 -5.956330 
-7.883052 -11.428782 -5.956330 
14.792798 -11.428782 -5.956330 
-7.846926 -11.106844 -5.956330 
14.738152 -11.106844 -5.956330 
-7.821262 -10.784906 -5.956330 
14.693936 -10.784906 -5.956330 
-7.809556 -10.462969 -5.956330 
14.673995 -10.462969 -6.197152 
14.677923 -10.462969 -5.956330 
-7.798576 -10.141031 -5.956330 
14.673995 -10.250347 -5.956330 
14.671965 -10.141031 -5.956330 
-7.776860 -9.819094 -5.956330 
14.657229 -9.819094 -5.956330 
-7.729987 -9.497156 -5.956330 
14.620041 -9.497156 -5.956330 
-7.658652 -9.175219 -5.956330 
14.567410 -9.175219 -5.956330 
-7.587737 -8.853281 -5.956330 
14.514030 -8.853281 -5.956330 
-7.578876 -8.811963 -5.956330 
-7.517776 -8.531343 -5.956330 
14.455202 -8.531343 -5.956330 
-7.441516 -8.209406 -5.956330 
14.417509 -8.209406 -5.956330 
-7.367270 -7.887469 -5.956330 
14.434489 -7.887469 -5.956330 
-7.304307 -7.565531 -5.956330 
14.503603 -7.565531 -5.956330 
-7.259799 -7.243594 -5.956330 
14.565055 -7.243594 -5.956330 
-7.256371 -7.200354 -5.956330 
-7.234509 -6.921656 -5.956330 
14.536987 -6.921656 -5.956330 
-7.213386 -6.599719 -5.956330 
14.478331 -6.599719 -5.956330 
-7.187966 -6.277781 -5.956330 
14.420821 -6.277781 -5.956330 
-7.162620 -5.955844 -5.956330 
14.369879 -5.955844 -5.956330 
-7.135108 -5.633906 -5.956330 
14.351489 -5.810275 -5.956330 
14.328961 -5.633906 -5.956330 
-7.103474 -5.311969 -5.956330 
14.284046 -5.311969 -5.956330 
-7.074232 -4.990031 -5.956330 
14.233150 -4.990031 -5.956330 
-7.049575 -4.668094 -5.956330 
14.201292 -4.668094 -5.956330 
-7.022411 -4.346156 -5.956330 
14.199884 -4.346156 -5.956330 
-6.987163 -4.024219 -5.956330 
14.211919 -4.024219 -5.956330 
-6.941230 -3.702281 -5.956330 
14.221942 -3.702281 -5.956330 
-6.933866 -3.660217 -5.956330 
-6.884449 -3.380344 -5.956330 
14.205721 -3.380344 -5.956330 
-6.826856 -3.058406 -5.956330 
14.160654 -3.058406 -5.956330 
-6.771820 -2.736469 -5.956330 
14.110558 -2.736469 -5.956330 
-6.714180 -2.414531 -5.956330 
14.058685 -2.414531 -5.956330 
-6.660947 -2.092594 -5.956330 
14.028984 -2.272039 -5.956330 
13.990446 -2.092594 -5.956330 
-6.612970 -1.770656 -5.956330 
13.913559 -1.770656 -5.956330 
-6.611360 -1.448719 -6.202797 
-6.611360 -1.757832 -5.956330 
-6.573118 -1.448719 -5.956330 
13.825384 -1.448719 -5.956330 
-6.548906 -1.126781 -5.956330 
13.739108 -1.126781 -5.956330 
-6.533611 -0.804844 -5.956330 
13.706479 -0.927130 -5.956330 
13.706479 -0.804844 -6.083272 
13.686871 -0.804844 -5.956330 
-6.512417 -0.482906 -5.956330 
13.706479 -0.482906 -6.258396 
13.653577 -0.482906 -5.956330 
-6.484054 -0.160969 -5.956330 
13.624087 -0.160969 -5.956330 
-6.446698 0.160969 -5.956330 
13.610118 0.160969 -5.956330 
-6.401453 0.482906 -5.956330 
13.607326 0.482906 -5.956330 
-6.353308 0.804844 -5.956330 
13.602193 0.804844 -5.956330 
-6.299012 1.126781 -5.956330 
13.598332 1.126781 -5.956330 
-6.288855 1.215213 -5.956330 
-6.262743 1.448719 -5.956330 
13.595308 1.448719 -5.956330 
-6.245872 1.770656 -5.956330 
13.587501 1.770656 -5.956330 
-6.225578 2.092594 -5.956330 
13.575649 2.092594 -5.956330 
-6.187379 2.414531 -5.956330 
13.552629 2.414531 -5.956330 
-6.113831 2.736469 -5.956330 
13.516220 2.736469 -5.956330 
-6.036567 3.058406 -5.956330 
13.476830 3.058406 -5.956330 
-5.966350 3.380344 -6.158573 
-5.966350 3.368056 -5.956330 
-5.963551 3.380344 -5.956330 
13.438326 3.380344 -5.956330 
-5.899117 3.702281 -5.956330 
13.406431 3.702281 -5.956330 
-5.866375 4.024219 -5.956330 
13.383973 4.024219 -6.038620 
13.387126 4.024219 -5.956330 
-5.862945 4.346156 -5.956330 
13.383973 4.083380 -5.956330 
13.370018 4.346156 -5.956330 
-5.864815 4.668094 -5.956330 
13.361901 4.668094 -5.956330 
-5.836016 4.990031 -5.956330 
13.383973 4.990031 -5.960467 
13.383973 4.985250 -5.956330 
13.384305 4.990031 -5.956330 
-5.785367 5.311969 -5.956330 
13.422765 5.311969 -5.956330 
-5.732576 5.633906 -5.956330 
13.453838 5.633906 -5.956330 
-5.676427 5.955844 -5.956330 
13.467503 5.955844 -5.956330 
-5.643844 6.181283 -5.956330 
-5.629937 6.277781 -5.956330 
13.475826 6.277781 -5.956330 
-5.591025 6.599719 -5.956330 
13.491177 6.599719 -5.956330 
-5.546672 6.921656 -5.956330 
13.519482 6.921656 -5.956330 
-5.496811 7.243594 -5.956330 
13.538185 7.243594 -5.956330 
-5.467184 7.565531 -5.956330 
13.603424 7.565531 -5.956330 
-5.458978 7.887469 -5.956330 
13.706479 7.887469 -6.227147 
13.706479 7.688827 -5.956330 
14.028984 7.887469 -6.093854 
14.028984 7.795431 -5.956330 
14.351489 7.887469 -5.966372 
14.351489 7.879883 -5.956330 
14.366687 7.887469 -5.956330 
-5.461491 8.209406 -5.956330 
14.673995 8.209406 -6.104242 
14.673995 8.070646 -5.956330 
14.837180 8.209406 -5.956330 
-5.555403 8.531343 -5.956330 
14.996500 8.531343 -6.079259 
14.996500 8.378205 -5.956330 
15.123011 8.531343 -5.956330 
-6.933866 8.792237 -5.956330 
-7.086312 8.853281 -5.956330 
-6.933866 8.853281 -6.151396 
-6.611360 8.723669 -5.956330 
-6.288855 8.727550 -5.956330 
-5.966350 8.751854 -5.956330 
-5.643844 8.629938 -5.956330 
14.996500 8.853281 -6.271352 
15.319006 8.853281 -5.973773 
15.319006 8.825049 -5.956330 
15.335496 8.853281 -5.956330 
-7.578876 9.112433 -5.956330 
-7.673138 9.175219 -5.956330 
-7.578876 9.175219 -6.086180 
-7.256371 8.929481 -5.956330 
15.319006 9.175219 -6.126971 
15.462238 9.175219 -5.956330 
-7.901382 9.336187 -5.956330 
-8.102125 9.497156 -5.956330 
-7.901382 9.497156 -6.242596 
15.319006 9.497156 -6.266371 
15.532727 9.497156 -5.956330 
-8.223887 9.611212 -5.956330 
-8.421504 9.819094 -5.956330 
-8.223887 9.819094 -6.245779 
15.319006 9.819094 -6.269855 
15.515601 9.819094 -5.956330 
-8.546392 9.977951 -5.956330 
-8.664076 10.141031 -5.956330 
-8.546392 10.141031 -6.113449 
15.319006 10.141031 -6.240105 
15.484737 10.141031 -5.956330 
-8.820746 10.462969 -5.956330 
15.319006 10.462969 -6.160009 
15.428856 10.462969 -5.956330 
-8.868898 10.560421 -5.956330 
-8.973074 10.784906 -5.956330 
-8.868898 10.784906 -6.102195 
15.319006 10.784906 -6.055233 
15.369269 10.784906 -5.956330 
-9.040220 11.106844 -5.956330 
-8.868898 11.106844 -6.222262 
15.319006 11.005198 -5.956330 
15.295670 11.106844 -5.956330 
-9.064376 11.428782 -5.956330 
15.213812 11.428782 -5.956330 
-9.028626 11.750719 -5.956330 
-8.868898 11.750719 -6.237067 
14.996500 11.750719 -6.164247 
15.086015 11.750719 -5.956330 
-8.989900 12.072657 -5.956330 
-8.868898 12.072657 -6.183233 
14.996500 11.942719 -5.956330 
14.936401 12.072657 -5.956330 
-8.927286 12.394594 -5.956330 
-8.868898 12.394594 -6.072208 
14.673995 12.394594 -6.172596 
14.749590 12.394594 -5.956330 
-8.868898 12.572613 -5.956330 
-8.817991 12.716531 -5.956330 
14.673995 12.516113 -5.956330 
14.538670 12.716531 -5.956330 
-8.633657 13.038468 -5.956330 
-8.546392 13.038468 -6.141058 
14.351489 12.963686 -5.956330 
14.292716 13.038468 -5.956330 
-8.546392 13.155446 -5.956330 
-8.382588 13.360406 -5.956330 
-8.223887 13.360406 -6.261438 
14.028984 13.350906 -5.956330 
14.020940 13.360406 -5.956330 
-8.223887 13.534534 -5.956330 
-8.056520 13.682343 -5.956330 
-7.901382 13.682343 -6.236085 
13.706479 13.682343 -6.085469 
13.738828 13.682343 -5.956330 
-7.901382 13.793331 -5.956330 
-7.578876 13.986797 -5.956330 
-7.548345 14.004281 -5.956330 
13.383973 13.992790 -5.956330 
13.367745 14.004281 -5.956330 
13.706479 13.714998 -5.956330 
-7.256371 14.164380 -5.956330 
-6.933866 14.306417 -5.956330 
-6.869344 14.326219 -5.956330 
13.061468 14.229989 -5.956330 
12.968433 14.326219 -5.956330 
-6.611360 14.402966 -5.956330 
-6.288855 14.453230 -5.956330 
-5.966350 14.455876 -5.956330 
-5.643844 14.422509 -5.956330 
-5.321339 14.373174 -5.956330 
-4.998833 14.342010 -5.956330 
-4.676328 14.404797 -5.956330 
-4.353823 14.648156 -5.978845 
-4.353823 14.638746 -5.956330 
-4.344365 14.648156 -5.956330 
12.772029 14.648156 -5.956330 
-4.045997 14.970094 -5.956330 
12.738962 14.704451 -5.956330 
12.574506 14.970094 -5.956330 
-4.031317 14.985335 -5.956330 
-3.708812 15.292031 -5.962552 
-3.708812 15.289668 -5.956330 
-3.705990 15.292031 -5.956330 
12.416457 15.158388 -5.956330 
